ncols         80
nrows         47
xllcorner         534873.8171
yllcorner         5374563.0198
cellsize         360.0
NODATA_value         -3.4028234663852886e+38
-7.909506162494476911e+00 -7.909017174234429071e+00 -7.908730464757486978e+00 -7.908478602018807813e+00 -7.908298821305576709e+00 -7.907977400902998610e+00 -7.870008875913607760e+00 2.025216293158551117e+00 8.768121835179644563e+01 2.748983629600702443e+02 3.360372978831219370e+02 3.701610374555853014e+02 3.530862374157343879e+02 3.408075435057826894e+02 4.312410067699965452e+02 4.828112594557726993e+02 4.873649043861886412e+02 4.867354416704459936e+02 4.097710722567576340e+02 3.226773926989303618e+02 1.615045522071034725e+02 1.120539643188631942e+02 1.132746649747978438e+02 1.565656160383027213e+02 1.032783240929280737e+02 8.587238278849403628e+01 8.800956191308419818e+01 9.230777980174430297e+01 1.113057436624996086e+02 1.715779713536750251e+02 2.076006178837181722e+02 2.313135682475354429e+02 2.914270886211367610e+02 3.944411432591406879e+02 5.175714199162572413e+02 6.950128979516520076e+02 6.989929248518054692e+02 6.006943137401372041e+02 4.902238360710863958e+02 3.308129425592329085e+02 2.907898843536966069e+02 1.406103136080856757e+02 1.001548381188212602e+02 1.092622211532311240e+02 1.729422008421522889e+02 1.692953609416826737e+02 1.638151191521440921e+02 1.723278649190519332e+02 1.295700959254496638e+02 1.085323920364980665e+02 9.895147707493856615e+01 9.570649901208535937e+01 9.620682503264617935e+01 9.958840634691449623e+01 1.050884197145872463e+02 1.051718069722258235e+02 1.195163359044893809e+02 1.773646553796039598e+02 1.638119691364204868e+02 2.625047452082864652e+02 2.942062218361712667e+02 3.115558085692556460e+02 2.980303102877420542e+02 2.557197054680611927e+02 1.605017716218977455e+02 9.746458501727801149e+01 8.624437186635442742e+01 8.630669232882804920e+01 8.790567221381998309e+01 8.922821198614460059e+01 1.108775119907645603e+02 1.498392359649408832e+02 1.706491739598606898e+02 1.910687898008464174e+02 1.772354133072630589e+02 1.735866702827948700e+02 1.129820367892619402e+02 1.166703156649104614e+02 1.208255697137458498e+02 1.376844951336730105e+02
-7.909500132244672521e+00 -7.909070606076257448e+00 -7.760469541219576328e+00 -7.085823603600386100e+00 -7.903648751776747083e+00 -5.607090716101509997e+00 -2.393360395029434429e+00 9.507635601374097689e+00 4.255902719087190178e+01 2.020787352103962462e+02 3.544967683260435365e+02 3.762819460818108155e+02 3.422942590964944429e+02 3.181395165328654002e+02 3.736726862241652611e+02 4.371461821770895426e+02 5.190832629634077193e+02 4.655218802071743198e+02 3.485210555145283138e+02 2.018166223306819234e+02 8.753919832278856461e+01 8.520421426351542493e+01 8.520419426351543279e+01 8.520417426351542645e+01 8.520415426351543431e+01 8.502027310743960697e+01 8.500607016262854643e+01 8.500677424836013074e+01 8.500694988845911837e+01 9.234315935199580849e+01 1.204282392705335099e+02 1.566870834795254837e+02 3.050596995765311021e+02 3.024227589484942200e+02 4.372182465456844511e+02 6.309047603397950752e+02 6.325518785568348221e+02 4.848919632764079211e+02 3.156581862032314234e+02 2.585585922148810027e+02 1.841348964466768052e+02 1.391438232956402601e+02 1.244256746278125831e+02 1.649993396445625251e+02 1.819977041531284101e+02 1.903146821570452687e+02 2.069419879456480089e+02 1.925927540410902168e+02 1.467344848117542426e+02 1.074466680707654120e+02 1.036232712281265691e+02 9.969142576806989098e+01 1.256098072918219657e+02 1.191872641588733330e+02 1.185390191786874823e+02 1.275912476808556733e+02 1.079540130197060108e+02 1.079540330197060030e+02 1.089832719384093025e+02 1.122072583887649699e+02 1.334232656041920961e+02 1.796475806168165832e+02 1.964495357426229134e+02 2.431541124591390712e+02 1.585248866105655168e+02 9.112700398178498062e+01 8.495464164567414400e+01 8.608797391656665354e+01 1.197635811822591734e+02 1.121212449109682296e+02 1.651941347855577646e+02 2.053217358167913460e+02 2.493898107387401524e+02 2.898088355261589300e+02 2.645880440227336976e+02 2.249880843564116617e+02 2.129525978931414727e+02 1.258787847154309105e+02 1.184901222421313776e+02 1.202189546001391136e+02
-7.909523513684954210e+00 -7.909028297261830431e+00 -7.617954728661982422e+00 1.954486031837733861e+01 -3.988347799410017491e-01 3.939762177392652776e-02 8.396059053994623156e+00 4.091036017463996188e+01 4.235815001302060523e+01 9.935507481427285370e+01 2.461800075468978264e+02 3.667947152216199243e+02 3.311574796362116899e+02 3.023050977290956212e+02 3.157270236497676024e+02 3.171029489290983179e+02 4.758264413144853506e+02 4.385113049634850313e+02 2.346162655894974876e+02 1.026848290317865917e+02 8.996797511441707229e+01 8.549201925479283659e+01 9.277372771518446370e+01 1.120376078546449321e+02 1.128770716635639815e+02 1.159779052455805726e+02 8.524403511026916647e+01 8.500399112564895177e+01 8.499496194256913384e+01 8.499490800173586535e+01 8.664406275896909904e+01 1.069307607271193916e+02 1.641162256071702359e+02 2.717019672009451483e+02 4.030172991614550710e+02 5.910593097252759662e+02 5.042458707531187656e+02 3.346409393630528371e+02 2.511823946268633847e+02 1.552978627782149772e+02 1.459635603326764510e+02 1.275992446778724201e+02 1.420932600239205783e+02 1.731458837297431899e+02 1.866728473091932017e+02 2.206810782096638093e+02 2.499087318551951569e+02 1.964738728167062902e+02 1.264295357208191319e+02 1.161509552276132808e+02 1.127546439320127689e+02 1.302230580568376297e+02 2.087592731079768669e+02 1.809138203181139204e+02 2.212137971112412345e+02 1.989972910131241122e+02 2.222202790545933055e+02 1.889029200799301975e+02 1.583737290288456450e+02 1.449932796395126502e+02 1.128955973627827802e+02 1.128956173627827724e+02 1.176913077083710419e+02 1.928120043098581959e+02 1.492254932548093791e+02 8.446709161484380957e+01 8.459785205753875914e+01 8.826957333583659704e+01 1.289630145769831984e+02 1.438185389097278062e+02 1.808333645690837841e+02 2.497982964369637102e+02 3.784141463166350263e+02 4.261639529141512526e+02 4.161871916614879297e+02 3.645541128804101163e+02 2.543640188238494773e+02 2.217382955486741878e+02 2.338100861982319998e+02 1.472763277474841175e+02
-7.909400901198795353e+00 -7.909087722560183664e+00 -7.908722459634139668e+00 5.609981749930325057e-01 2.438049439861221757e+01 2.045966154788653402e+00 2.602730434233243173e+01 6.652129547470100590e+01 9.906463542584543802e+01 1.003244232262000111e+02 1.950808459384322759e+02 3.062542553837281503e+02 3.883474984048795022e+02 3.001617831649247705e+02 2.927442045423550212e+02 2.943946753274155981e+02 3.806947558915289846e+02 3.308079195474183507e+02 1.656503789978814609e+02 1.303052997012383685e+02 1.077778313789433184e+02 1.216549772502524291e+02 1.149996288207649542e+02 1.356074941453158544e+02 1.601213835323162016e+02 1.606238511562347355e+02 1.130083838080366405e+02 8.608697788489223512e+01 8.498276226802781252e+01 8.498292955916372193e+01 8.500349945020445830e+01 9.494103256604286400e+01 1.259537921593856424e+02 2.708832685714110085e+02 3.954532929253332441e+02 5.706690912180933992e+02 5.136829353844517527e+02 3.236502775644940471e+02 2.005521345100236204e+02 1.414126146253648812e+02 1.248824004391372569e+02 1.271196195271564164e+02 1.500381449686254882e+02 1.678556368775224996e+02 1.837075196892732265e+02 2.656460056708940556e+02 2.649112269968925943e+02 1.706233865637834981e+02 1.309769049379300725e+02 1.304171324418714164e+02 1.231548655247781738e+02 1.615652130454043913e+02 2.468587424165908715e+02 2.589846526402419613e+02 2.577407650147813456e+02 2.627755152901486895e+02 3.210299085400821468e+02 3.400263836963629274e+02 3.180474054217531261e+02 2.652867793074987617e+02 1.914666569166917043e+02 1.712644109331837114e+02 1.154639502839744694e+02 1.259808171844541533e+02 1.119730223675194907e+02 8.446707161484381743e+01 8.640813163634700800e+01 9.554518309453543168e+01 1.360932554561628933e+02 1.578105401886998038e+02 1.853522019162273580e+02 2.970429962973558418e+02 3.706005053808680714e+02 3.885724203999499764e+02 4.064783144422397640e+02 4.048099721154569579e+02 3.036940571773372994e+02 3.261557850435607975e+02 3.144517502055031741e+02 2.500827863163758877e+02
-7.909537889032707270e+00 -7.909085679117314527e+00 -7.908781709254419034e+00 -6.529836441824671489e+00 2.339763095904254797e+01 2.434725199582392108e+01 7.512369663310501267e+01 7.653557866447515323e+01 1.275896156564643888e+02 1.814797324211804437e+02 2.384150431981991858e+02 3.161086069121507762e+02 3.960222015461168894e+02 3.596348337752784801e+02 2.950310569328435690e+02 2.884959607748433541e+02 2.906653260968153063e+02 2.480125768500320191e+02 1.783244633471777547e+02 1.590802898120389557e+02 1.407889986009555230e+02 1.606596905875340724e+02 1.358519898431852653e+02 1.898769070338665017e+02 2.301309526761465634e+02 2.143072836363610918e+02 1.568899886037888791e+02 1.297609298514037448e+02 8.500883156461813428e+01 8.497094592550529057e+01 8.497103634868066990e+01 8.732270515575015679e+01 1.434417435514573071e+02 1.920680478824555451e+02 3.075454231992126211e+02 4.610766151044732055e+02 5.164757317254511690e+02 3.613608710416563099e+02 2.115912476138506122e+02 1.257014643602890800e+02 1.235461973474654656e+02 1.359106069806154835e+02 1.677844784758307810e+02 1.782130931029443843e+02 2.074219567987649668e+02 2.965498789705971490e+02 2.365944611838149001e+02 1.481430402464754934e+02 1.383891747525125311e+02 1.422502799520687233e+02 1.340631091208236114e+02 2.265085665488155087e+02 3.108073469500675401e+02 3.029237738038769976e+02 3.590362121666159396e+02 4.109201814416520051e+02 4.377304221667355364e+02 4.635180291757211535e+02 4.206602360846107445e+02 3.739845330260941410e+02 2.816216051506273743e+02 2.410346482946074502e+02 1.816370167705977110e+02 1.407666547401716741e+02 9.715009505589523542e+01 8.376184467978521297e+01 9.004766309167611382e+01 9.390028783011479163e+01 1.473845091086589321e+02 1.782112107860567960e+02 2.241779936528305655e+02 2.721408339596503652e+02 2.986905313149047174e+02 3.236879528858329422e+02 3.336085435269522463e+02 3.595248256182529190e+02 3.641505764059718899e+02 3.668226235955966104e+02 3.658383830004331116e+02 3.215756211886395022e+02
-7.909522762452266598e+00 -7.909129973836411587e+00 -7.908801355344738937e+00 -7.908497859351459880e+00 -4.578964205821042799e-02 1.128573426219866782e+01 3.896460670014382544e+01 6.128759538822365016e+01 1.635326280403750445e+02 2.489899875235838920e+02 3.327084119562060778e+02 3.349100853123372303e+02 4.108356424967448106e+02 3.667850843214156953e+02 3.435368276810646648e+02 2.765694736322044491e+02 2.734234302753432644e+02 1.900965870059924328e+02 1.777433091405545724e+02 2.275527171277735476e+02 1.699415992842413630e+02 1.865251832026772547e+02 1.769141066091737855e+02 1.793899324811037275e+02 2.274726091082601158e+02 2.298287582117313832e+02 1.928942866644643175e+02 1.539307174479654350e+02 8.624064947424187721e+01 8.496316859576504044e+01 8.495903717949715883e+01 8.512034528748534967e+01 1.257864100781726933e+02 1.644587736068233426e+02 3.419517981977597287e+02 3.792546465181626445e+02 4.863675005576416197e+02 3.977141423641217557e+02 2.310267015936574353e+02 1.235461773474654734e+02 1.332255266925179455e+02 1.425064530479494636e+02 1.709744239478204122e+02 1.740315785469462071e+02 2.285549095835925755e+02 2.840296875383065753e+02 2.033887788879279412e+02 1.451658107569481047e+02 1.422289972116004435e+02 1.493624697399950776e+02 1.769644498641133339e+02 2.867957201111572658e+02 3.991496599856938019e+02 3.943606370386519870e+02 4.755037721493727645e+02 5.783423335956160827e+02 5.648731246215363626e+02 5.770360199406582069e+02 5.341841668602634172e+02 4.386410109994527033e+02 3.303065920240455284e+02 2.302770797165045451e+02 1.705167531188105272e+02 1.232354356140181295e+02 8.886749906310146230e+01 8.326472262486608145e+01 8.819565913636358800e+01 9.861993805186074269e+01 1.146313098810455671e+02 1.871830188224072344e+02 2.264523925120699346e+02 2.722759802316026594e+02 3.642525975589776976e+02 4.006479055420155078e+02 4.381633883773106959e+02 4.363487102298263949e+02 4.167940670414443503e+02 4.145004746480946665e+02 3.925160842970688577e+02 3.537285547744518794e+02
-7.909545634942125147e+00 -7.909160759845907940e+00 -7.908851531819894198e+00 -7.908511652960651617e+00 -7.807451711372712211e+00 -1.036766391974295182e-01 4.768722727014149676e+00 4.613660951683804257e+01 1.695470422841027869e+02 2.712654528352836678e+02 3.379009139727602360e+02 4.326774035428477418e+02 5.057917304916126682e+02 3.824363500956771418e+02 3.576745702307985653e+02 2.785952061380729674e+02 2.548103987813203446e+02 2.180886088560341136e+02 2.041571016692914213e+02 2.569977097376591928e+02 2.021913411069815822e+02 2.110079988118349092e+02 2.116677888983300022e+02 1.969720343706443657e+02 2.117918265569080347e+02 2.182222070019160185e+02 2.084174572016675882e+02 1.704729956511646662e+02 1.352681220146693306e+02 8.552509626260896880e+01 8.494716059061158830e+01 8.495669457616222076e+01 9.683427889429898983e+01 1.340570499862721476e+02 2.542386648879092093e+02 3.366534318602278404e+02 3.751799032362767434e+02 4.159772447648535376e+02 2.508955459786179460e+02 1.227811940013528016e+02 1.255536592081326290e+02 1.473697314469781929e+02 1.612793533532666856e+02 1.656591346008951575e+02 2.250590744361911675e+02 2.382159189603575840e+02 1.736445653049983378e+02 1.482714051565904185e+02 1.752852290997881823e+02 1.733396515450363040e+02 2.270496743679429983e+02 3.618146038147351078e+02 4.836976374714213875e+02 4.751902475561467440e+02 4.969165342788209614e+02 6.716964532049302079e+02 7.083666202711021924e+02 6.940731058375720295e+02 5.809483260315128064e+02 4.659562406275326794e+02 3.634543684476064982e+02 2.234983442834264054e+02 1.375007428126311879e+02 1.083056122452246512e+02 9.333412978543771032e+01 8.314063261252103132e+01 1.014147941283934387e+02 1.441131819552920490e+02 1.535355528495655619e+02 2.152789600932594851e+02 2.767411541660034686e+02 3.869667360965754028e+02 4.617585200291053980e+02 4.966816916696609496e+02 6.016875902746598967e+02 5.897224261551911013e+02 5.787819660607175365e+02 5.172718619230211061e+02 4.562611846704277241e+02 3.661228511952184022e+02
-7.909593015704176722e+00 -7.909208983979874041e+00 -7.908875306459871801e+00 -7.908603916220873664e+00 -7.908275262324827359e+00 -6.296850039958243883e+00 7.991579488992082148e-01 4.379764550333802475e+01 1.018859151388011810e+02 2.221314241743953346e+02 2.834076448933186043e+02 3.370516948940431234e+02 4.798434388914366195e+02 3.861037657155317220e+02 3.473680232893376001e+02 2.994086662660321281e+02 2.723044647030339434e+02 2.386900138531406128e+02 2.194614106717617688e+02 2.589375875949081660e+02 2.480234261881713280e+02 2.415933163483394992e+02 2.471231644328717607e+02 2.310945676944149625e+02 1.979832790584158602e+02 1.941202011580469389e+02 2.048271583478475293e+02 1.797184564605821606e+02 1.507530327490512718e+02 1.268313759605483284e+02 8.510994541537928626e+01 8.493873017808640213e+01 9.183237489320261204e+01 9.701108627730960166e+01 1.434821671105865164e+02 2.326423849086039013e+02 3.009329656511802114e+02 3.339514031028712111e+02 2.494114302016148770e+02 1.229649854459984653e+02 1.223358739158336590e+02 1.273595520711860587e+02 1.374796162094243073e+02 1.594374406229734973e+02 1.963932386897160427e+02 1.740564386448442917e+02 1.578719064872992703e+02 1.540172310003198390e+02 1.953819188541204994e+02 2.096581860037608749e+02 2.853050270740964152e+02 4.327431352923180157e+02 5.355261753388565467e+02 6.618077772456649654e+02 6.210159332529917720e+02 7.201859653199143168e+02 8.157255333725287301e+02 7.081846835459522254e+02 5.832122748071863043e+02 4.805913604978632065e+02 3.597755639621550472e+02 2.503370928864212885e+02 1.540267881968445636e+02 1.022269855216336083e+02 8.277417789306348084e+01 8.257923677090084880e+01 1.181634965456238149e+02 1.662287241011567573e+02 1.918531044201992017e+02 2.523362634580081760e+02 3.978410499136377325e+02 4.998934532519281788e+02 5.930495673239108783e+02 6.149495140747483219e+02 7.424723249283823634e+02 7.632032287565583601e+02 7.413548284435948972e+02 6.787893453834615229e+02 5.387752558159677392e+02 4.256114815010059829e+02
-7.909622390516945600e+00 -7.909237333654381530e+00 -7.908953744861372925e+00 -7.908626664932802086e+00 -7.908308474871573068e+00 -7.908088926620701287e+00 -7.469415782472621501e+00 2.232728301651794922e+01 6.108683903435415630e+01 1.292713624030532173e+02 2.145439230595881384e+02 3.181817093864218577e+02 3.846948189825797044e+02 4.600153210861366802e+02 3.943667854880701498e+02 3.473364768692682674e+02 2.645014580243680484e+02 2.379458841039817401e+02 2.165520980400976896e+02 2.560045516919428792e+02 2.657039833220610490e+02 2.720686309877899021e+02 2.938873972866704776e+02 2.777720181666218195e+02 2.083222447577307435e+02 1.811039970367370415e+02 1.670865348517329494e+02 1.605389166408184280e+02 1.593073724353743899e+02 1.172252860619115609e+02 9.599150052070969252e+01 8.493644825457833747e+01 9.549598350861189999e+01 8.125463710196822831e+01 8.994984797822357336e+01 1.356988252373769797e+02 2.674607780535872052e+02 2.761625817565065972e+02 3.024196149603151866e+02 1.616659901430753052e+02 1.222897953096841661e+02 1.225705919593829094e+02 1.386617195084328671e+02 1.489996081676881943e+02 1.568969412030903356e+02 1.623225623778183149e+02 1.607663269162844131e+02 1.702265874121839886e+02 2.077465637659970241e+02 2.877173362656395170e+02 4.184827685411946732e+02 5.349650456195214474e+02 6.047585171867257259e+02 7.505529323609407584e+02 7.875405012575442925e+02 8.044719385013124793e+02 8.399627319561159311e+02 7.222040976764302513e+02 6.058913994349213681e+02 4.939991767092579380e+02 3.999311610428164272e+02 2.938511459592439792e+02 1.778653856049484432e+02 9.647502823283407736e+01 8.050950009738402002e+01 9.952824950786798297e+01 1.368481667302604592e+02 1.614776568272594375e+02 2.577093514220974271e+02 3.449581688671106576e+02 4.155511323941348110e+02 6.305069913053320079e+02 7.236944875927651992e+02 7.777775403141915831e+02 8.716457965461574986e+02 8.868129778220123853e+02 8.721292080223338417e+02 7.837132945921864575e+02 6.384563274515086277e+02 4.665354572370940787e+02
-7.909641481861879875e+00 -7.909308260992498063e+00 -7.908983872324219178e+00 -7.908669778388126126e+00 -7.908430044572985373e+00 -7.908086115425118301e+00 -7.907735638603142547e+00 -4.921234225683392971e+00 3.906437893374972958e+01 1.416694106946983140e+02 2.514934035474111056e+02 3.455583339122937332e+02 4.017113847673730334e+02 4.981861372686162781e+02 4.558332855773857091e+02 3.638974924165420362e+02 3.371255657832901989e+02 2.038789840350077043e+02 1.797985863068640242e+02 2.249414477681004598e+02 2.735066102379783501e+02 2.732580887163348393e+02 3.359703186948635221e+02 3.274273592417528675e+02 2.857481586260286690e+02 2.380479694850191095e+02 1.986534594222817418e+02 1.563166449219486935e+02 1.480705157561052374e+02 1.366706494912392031e+02 1.019474072169177106e+02 8.399054176232239399e+01 8.274991887688304359e+01 8.097319356357347431e+01 7.926709414812049204e+01 1.344471693660993310e+02 1.566894719233482363e+02 2.171285699422200253e+02 1.953715219215237937e+02 1.591393150292006737e+02 1.222974832009431623e+02 1.216743999894337946e+02 1.304840043268409602e+02 1.366165077053999255e+02 1.493200237393931786e+02 1.574471526981722036e+02 1.823202141090002044e+02 2.582671146991704063e+02 2.882000142567193279e+02 3.976122882051108149e+02 5.303965566905811784e+02 6.497884719540968490e+02 7.240055827158796546e+02 8.086568893702475407e+02 8.577867148036112894e+02 9.515362425006803733e+02 8.686149374658313036e+02 7.405856964289793041e+02 6.215326834567501919e+02 5.149186773632280847e+02 4.427737802875868169e+02 3.251934210379776005e+02 2.309520349152636527e+02 8.355691010708613931e+01 7.995893594127703352e+01 1.255178986673948316e+02 1.784809807124325687e+02 2.813212272070222184e+02 3.737583994553315847e+02 4.906286313724713750e+02 5.246212065642330344e+02 6.186323758411909921e+02 7.617726691081435320e+02 9.095838621508016786e+02 9.732874628088516147e+02 9.305577931987313605e+02 8.543018311148947532e+02 7.287280015878520771e+02 6.153882603667781268e+02 4.292869110457225474e+02
-7.909735900934911079e+00 -7.909342489349802108e+00 -7.909030838413204201e+00 -7.908779740792376778e+00 -7.908445716590208896e+00 -7.908101697624164927e+00 -7.907880976612598367e+00 -7.907534347083354120e+00 -3.165693880175727504e+00 2.955456314252591810e+01 2.230507730624946419e+02 3.284436109711496670e+02 3.751829631109672505e+02 4.610595757040247804e+02 5.262476664476862425e+02 4.051258581278606243e+02 3.856939323735664971e+02 1.751930404168056157e+02 1.468594623275402569e+02 2.028681556848990510e+02 2.377435338792293749e+02 2.691608007553988386e+02 3.799951896496417589e+02 4.013259487893324149e+02 3.860275282859802246e+02 3.718514119843649723e+02 3.404494949883622894e+02 2.177619520321692619e+02 1.451393886764935246e+02 1.404329269223222525e+02 1.022959175285153606e+02 9.178042257234143619e+01 8.450039951694895990e+01 8.055097397049718211e+01 7.901051727786970957e+01 1.085926115123176174e+02 1.809798322470051630e+02 1.610728587700446610e+02 1.589019981069741050e+02 1.367843313297387340e+02 1.185674935195177966e+02 1.185317569016166459e+02 1.188214329512166216e+02 1.290671589009898241e+02 1.429211209800369886e+02 1.631052525157683988e+02 2.335002509445155567e+02 3.623603802603964255e+02 3.749443322127797273e+02 4.412811569413183861e+02 5.673707722940916938e+02 6.614117032197805202e+02 7.565419179456118854e+02 7.922454963891277657e+02 8.980094308343315106e+02 9.524595123635014033e+02 8.474859417738950924e+02 7.535056927728662686e+02 6.442012802789967054e+02 5.337416010296686864e+02 4.101332446003838754e+02 3.056722952155683402e+02 2.020345068075728250e+02 8.477950963166090048e+01 7.966019614476562083e+01 1.455261902446740692e+02 2.551859330951618858e+02 3.656979798438565012e+02 4.956587482861289686e+02 5.921120761936882673e+02 5.937532262316337892e+02 6.419748661997300587e+02 7.689056608670556443e+02 9.145514089383967757e+02 1.005503239632916006e+03 9.225918101716149522e+02 8.225187373467709904e+02 7.153461334791995796e+02 5.828205980682546397e+02 4.930887981135484210e+02
-7.909746502334149554e+00 -7.909391717343849493e+00 -7.909133251602886716e+00 -7.908805528097654580e+00 -7.908466517275695828e+00 -7.908238108408315981e+00 -7.907896294612651644e+00 -7.907584826184953286e+00 -7.907309714032409786e+00 -2.695782641750520958e-01 9.996448056478553212e+01 2.541877275912495975e+02 3.728228978550228021e+02 4.218510442421883226e+02 5.092637595744643590e+02 4.377001183031468940e+02 3.933731142478750371e+02 1.638509561281912568e+02 1.331757627792183598e+02 1.994498988655035134e+02 2.299403297037640641e+02 3.247511584716896778e+02 3.924304145425052752e+02 4.777338115393244493e+02 5.152575933924773608e+02 4.938583266283118292e+02 4.594326818008826194e+02 3.470638600182128357e+02 2.187718121768238859e+02 1.381127363062262532e+02 1.118479417571931407e+02 1.260928778847814016e+02 1.039959836470680727e+02 7.991135140040510976e+01 7.900066667605258885e+01 9.379589414258313695e+01 1.909983240400041780e+02 2.134779981582996697e+02 2.596886442273306557e+02 1.726446730428826015e+02 1.127961169849436232e+02 1.155637849730973841e+02 1.188552112502833040e+02 1.257947246930117444e+02 1.429637196156145365e+02 1.957822586936469236e+02 2.799057971142602241e+02 4.067155445848136992e+02 4.464070608494901080e+02 4.824952814547297635e+02 5.615328827531199067e+02 6.154014889365963654e+02 7.345522063438313580e+02 8.246469817892478886e+02 9.326048271413093289e+02 9.477067611603432624e+02 8.333019546892658127e+02 7.307750197064822260e+02 6.376604039183613395e+02 5.304625078347011140e+02 4.037719590924259592e+02 2.838835297698910836e+02 1.692847246965112902e+02 9.339810449397300829e+01 7.917560523442648446e+01 1.447112222721672765e+02 2.645879936099571523e+02 3.931614732053466241e+02 5.353894028436569670e+02 6.511204356805656062e+02 6.711020315338413411e+02 6.742210683479082718e+02 7.614836239811606902e+02 8.835493668205994027e+02 1.028452179713641272e+03 9.188389319782502298e+02 8.375378238074272303e+02 7.589407831443641044e+02 6.647524501530810994e+02 5.488338011415365827e+02
-7.909768766479086111e+00 -7.909488789556971433e+00 -7.909165418270752035e+00 -7.908830442543003159e+00 -7.908595656683666597e+00 -7.908257073420048577e+00 -7.907946970383100904e+00 -7.907662457933926525e+00 -7.907354388800231781e+00 -7.907151883883225096e+00 9.660731017474841309e+00 2.270248036378748964e+02 2.581013820833256887e+02 4.011444667080203885e+02 4.407040354410807481e+02 4.600656734468071818e+02 3.873523516044170947e+02 1.412127254270603771e+02 1.262821039272157577e+02 1.613278538056930813e+02 2.360284761925686041e+02 3.531170136417138110e+02 4.772709198383369653e+02 5.332951945546410570e+02 5.793109129773340555e+02 5.693679867780559789e+02 5.138195412357251826e+02 4.225434473879305415e+02 2.969413759873013987e+02 1.898828190566388798e+02 1.188987993324923593e+02 1.224080891085511382e+02 1.353101400781709174e+02 8.281309510689605702e+01 7.802472314464830561e+01 7.728405432976131806e+01 1.483211511865344789e+02 2.535095475695283369e+02 3.157735194875233447e+02 1.665238236221369732e+02 1.094506566592290540e+02 1.204417731242871525e+02 1.196034326061740813e+02 1.245782131304934950e+02 1.607949531174175490e+02 2.313580612239861409e+02 3.543680536331103212e+02 4.376890810773672342e+02 4.822722102851815293e+02 4.995565261231281511e+02 5.577846599806355243e+02 5.981025063259479566e+02 6.911989949927899488e+02 7.994529029151774466e+02 9.305477222208511421e+02 9.350155338600026198e+02 8.580209508008679222e+02 7.330813107759117884e+02 6.078855912586608383e+02 4.829917355426549079e+02 3.804711227942553364e+02 2.365353271257197036e+02 1.274994315165793637e+02 1.047031495550485118e+02 7.826378941423726587e+01 1.614522590046395010e+02 2.902888189903636089e+02 4.331148852765031734e+02 5.607848372142589142e+02 7.136521122556169985e+02 7.444325338403983778e+02 7.320120539130127781e+02 7.747924891639793259e+02 9.171147968907509949e+02 1.055176588528893944e+03 9.805981474852969768e+02 8.479408272213969440e+02 7.434735686854571668e+02 6.367948634603155824e+02 5.380962111554827061e+02
-7.909916863641466733e+00 -7.909525346365897214e+00 -7.909193701244643826e+00 -7.908953536866034639e+00 -7.908617492729530518e+00 -7.908308173540378405e+00 -7.908018544061988564e+00 -7.907715435361050815e+00 -7.907507546824078304e+00 -7.907318073346814025e+00 -7.570031382189374547e+00 4.603749530898264908e+01 1.873479509175997464e+02 3.072815836679898212e+02 3.237091592654319356e+02 3.981686542580980586e+02 3.365105630430024348e+02 1.224770524707379877e+02 1.109452777002360051e+02 1.882354011726243357e+02 2.395330206193853542e+02 3.506393860693074771e+02 4.510645475198930399e+02 5.136092421904783123e+02 5.742036288733864922e+02 5.609011682191260206e+02 4.956957196011670135e+02 4.185848680655737439e+02 3.224242787724858772e+02 2.239644616732033455e+02 1.496195775440029649e+02 1.257838463284590063e+02 1.406106842090826774e+02 9.530418517293588820e+01 8.228583791014318649e+01 7.624209339516011141e+01 9.834844298256490447e+01 2.179007044932881456e+02 1.888260932682067335e+02 1.080315782969574627e+02 1.095302988230027381e+02 1.226196502191328079e+02 1.204605587292023472e+02 1.349256791684737777e+02 1.790876830636064199e+02 2.900726288417787373e+02 3.980982665226036943e+02 4.505528396818513102e+02 4.978508605007314145e+02 5.041021298988261492e+02 5.423483951377813810e+02 6.175906255352264225e+02 7.385468554056305948e+02 8.210195152539063201e+02 9.021767715800696124e+02 9.198843395068936388e+02 8.173077727405867563e+02 7.240678979176813073e+02 6.196034062185075300e+02 4.811875651225963679e+02 3.521211731040726818e+02 2.465666389503760740e+02 1.448229540847812018e+02 7.718250269804930497e+01 7.749797205298764879e+01 1.954444486748627980e+02 2.996798200098879192e+02 4.287347662580937708e+02 5.882075669461448797e+02 6.882795045379325529e+02 7.775671092143223859e+02 7.803436829305738911e+02 8.161715859959267618e+02 9.172783825254061867e+02 1.061383131525699355e+03 1.006696053610999343e+03 9.044140580055112650e+02 7.902267157858595965e+02 6.962500469698735515e+02 6.196153026759149043e+02
-7.909914764833642309e+00 -7.909556449880986939e+00 -7.909311685829476524e+00 -7.908977754780774916e+00 -7.908668943679671770e+00 -7.908376095490420532e+00 -7.908076070109854250e+00 -7.907865507822583240e+00 -7.907674903738688421e+00 -7.907487457237206918e+00 -7.907290894051349106e+00 -7.484612122146170776e+00 4.122383368030838824e+01 1.317389548591528694e+02 1.656831348344432797e+02 2.570516637861559843e+02 2.517819713680203790e+02 1.852729313082041926e+02 1.033311879853391417e+02 1.630444745137966436e+02 2.592834597009552908e+02 3.416820111610498429e+02 4.616804146076285633e+02 5.554725764792254949e+02 6.286782344927473787e+02 6.275149319796689724e+02 5.677676801353503606e+02 4.627216710076816071e+02 3.425556409026696087e+02 2.451154629125625775e+02 1.618899779791682931e+02 1.341213066621431835e+02 1.342004754317434276e+02 1.098696738183798942e+02 9.575948207286181457e+01 7.541221746177022567e+01 7.493108039936659281e+01 1.292644051238800103e+02 1.225836683242990688e+02 1.031783598211705595e+02 1.158591253141664481e+02 1.158119409489903973e+02 1.169298775086907369e+02 1.338673773863720271e+02 1.981678610321787914e+02 3.102563575884519196e+02 3.992526322666327019e+02 4.530029385856778390e+02 5.022919455866847898e+02 5.094106718107706797e+02 5.220263675197048769e+02 6.091932571928896323e+02 7.034361062868146064e+02 8.310995498691984267e+02 8.829810553081964599e+02 8.710755011264102450e+02 7.821060088825448702e+02 6.751670095471785089e+02 5.669372858197607457e+02 4.593994966810209348e+02 3.202337033860901556e+02 1.989111435759611766e+02 1.295971691431275588e+02 7.686681933384340937e+01 8.805400454064471205e+01 1.579305769929939913e+02 2.364970704525356950e+02 3.705038901074418050e+02 4.353401907895838576e+02 6.135729546515234460e+02 7.271041796536210313e+02 8.166211789162742889e+02 9.329298506761874705e+02 1.038693520986905696e+03 1.148359081466762973e+03 1.080670577779250834e+03 9.712459767362756793e+02 8.393640990356053635e+02 7.250041307878881298e+02 5.919587349014720985e+02
-7.909938555007632210e+00 -7.909670055501726083e+00 -7.909337934071378307e+00 -7.909029478915754474e+00 -7.908734419086234979e+00 -7.908436496152784656e+00 -7.908224322934804817e+00 -7.908033255758297742e+00 -7.907845416045729436e+00 -7.907649977616689085e+00 -7.907459003610698645e+00 -7.907270103054186094e+00 -7.139570756303388777e+00 9.933706193641709703e+00 3.769148611906717150e+01 6.480873213157663315e+01 1.288203803343015750e+02 2.077445812001442960e+02 9.540504879929972049e+01 1.800501800857714159e+02 2.650616138040646774e+02 3.558552456294264630e+02 4.962358367775182728e+02 5.900566559262366582e+02 6.089773762950854916e+02 6.162104918851147204e+02 5.804146547881006200e+02 5.000858473551128895e+02 4.100083679608850389e+02 2.483534480217351756e+02 1.664783876718838656e+02 1.459088774607538994e+02 1.340523379604476872e+02 1.148342498886640755e+02 9.235969579296936161e+01 7.616045199142641309e+01 7.469354167994856653e+01 8.884831529878384515e+01 1.039941431091366724e+02 9.795528319975927900e+01 9.602066076444212683e+01 1.098987521265362801e+02 1.143985874050420932e+02 1.448141917907009883e+02 2.574550493598123353e+02 3.326257511314979070e+02 4.096798578627956431e+02 4.541054304436666484e+02 4.968545631376499614e+02 5.074837430381458603e+02 5.074443849351509357e+02 5.561649085856316788e+02 6.710965491326398933e+02 8.061749392139668089e+02 8.520874215977424910e+02 8.012022512582385616e+02 7.263172179821611962e+02 6.264782209175050411e+02 5.105224846554178271e+02 4.219430195877268943e+02 3.027961460439655070e+02 1.869404546816421373e+02 1.033951464991766755e+02 7.653542651396243457e+01 9.526486007014273127e+01 1.885015922194260725e+02 2.925914036179908635e+02 3.455956650418340814e+02 4.568804727158841956e+02 5.470406281704092635e+02 6.744243948398017210e+02 8.046334835862687669e+02 9.394702450290133129e+02 1.077530073638039312e+03 1.199100730457525060e+03 1.126701558430989508e+03 9.720864984658938965e+02 8.818715831842832813e+02 7.494143751596559468e+02 6.109205676232641054e+02
-7.910051988441673565e+00 -7.909698064460660483e+00 -7.909389872500232954e+00 -7.909093199338860458e+00 -7.908796801890678907e+00 -7.908583548430218713e+00 -7.908392245778781415e+00 -7.908204299652068059e+00 -7.908009348627039969e+00 -7.907817189642453393e+00 -7.907627797596371799e+00 -7.907441212887282411e+00 -7.907253132298955656e+00 -7.484501220055886250e+00 9.998599754644755047e-03 8.270291932071957008e-01 8.543290977385899154e+00 6.995589020045615314e+01 8.639179853556808553e+01 1.674298572148132678e+02 2.783660472298622608e+02 3.839081527917153380e+02 4.558082863327419432e+02 5.739419423271627920e+02 6.210483122312366504e+02 5.957516963819742841e+02 5.705234418935813210e+02 5.003857611807974877e+02 3.749064985295547103e+02 2.514197084759379095e+02 1.735295259431374291e+02 1.593311702283978946e+02 1.418122056356004350e+02 1.237378670702818511e+02 9.500491848595366662e+01 7.714715680662268937e+01 7.468179209945787989e+01 7.723826760667576252e+01 8.382996091964311347e+01 8.960759081130865411e+01 9.509813314546740060e+01 1.036343014445308057e+02 1.168669072016890595e+02 1.626391856884594631e+02 2.710153951996975934e+02 3.363641958555573979e+02 3.910914115368480566e+02 4.517884831400706389e+02 4.784431020535513426e+02 5.008827349641352384e+02 4.852810400873513572e+02 5.301809932468985380e+02 7.052325042724609148e+02 7.831716986311012079e+02 7.876356583804113143e+02 7.440072881573212271e+02 6.586033530825565094e+02 5.733349850652299438e+02 4.752371503966754176e+02 3.782667691667842860e+02 2.755945371608940491e+02 1.616401732924587975e+02 7.636927790686171136e+01 7.636805491006796842e+01 1.025275371721302662e+02 1.908967705846391993e+02 3.046377722591260522e+02 4.486803086408019681e+02 5.747671949528465802e+02 7.083228242557042904e+02 7.855602929508714851e+02 8.776492318497702172e+02 9.831156346586390100e+02 1.105431094655168863e+03 1.213466567185066197e+03 1.130181593674879878e+03 9.991198909082269211e+02 8.897692470342395836e+02 7.870178283029088107e+02 6.577677266355760821e+02
-7.910076161989516130e+00 -7.909750174094315689e+00 -7.909452272024108943e+00 -7.909157031976262964e+00 -7.908943002577085046e+00 -7.908751563391585471e+00 -7.908563595641528998e+00 -7.908368890178081756e+00 -7.908176154054424423e+00 -7.907986634497834011e+00 -7.907799017995717605e+00 -7.907611620736308744e+00 -7.907434745929997177e+00 -7.907260881471882108e+00 -7.906507009942354003e+00 -3.773706208003939633e+00 1.125156525198885316e+00 3.399893688172418393e+01 1.035708856656001160e+02 1.633055295957474300e+02 2.841237240340109338e+02 4.221231355127298457e+02 4.819358955154397108e+02 5.237051646768804858e+02 5.630112751720081405e+02 5.612887836005533018e+02 4.864206720556055075e+02 4.441453920447307837e+02 3.353075408958890193e+02 2.152631074053224154e+02 1.742596952816900568e+02 1.673059998572466895e+02 1.598601555005313912e+02 1.392044868167654101e+02 1.192830765592837707e+02 8.909796471089556746e+01 7.461969623806878360e+01 7.685493929233584254e+01 8.090636477263201698e+01 8.943101346168050725e+01 9.655608822580533968e+01 9.375402149328004953e+01 1.049258869844672546e+02 1.645566346674789600e+02 2.548621744492920129e+02 3.389611198802985541e+02 3.876198233094666534e+02 4.503209286013657788e+02 4.569479862421594589e+02 4.832505787269379880e+02 4.605438670607207996e+02 5.609896861588138108e+02 6.975394091225547299e+02 7.379426966808839552e+02 6.994121137094375626e+02 6.248442201439713699e+02 5.915136653101191087e+02 5.455864954095303574e+02 4.333199319777608025e+02 3.393975109575673059e+02 2.400767117529672703e+02 1.075706581600464773e+02 7.597609203378252118e+01 8.089121513856531465e+01 1.225581514834652808e+02 2.127483646647135345e+02 3.012224474112918529e+02 4.268898141043526948e+02 5.766457953819862041e+02 6.637349033517476755e+02 7.886979299769628824e+02 9.151374046058208478e+02 1.027450758041090239e+03 1.144082931401359701e+03 1.231877993787182959e+03 1.134697934556700602e+03 1.046819463687201960e+03 9.421829706051928497e+02 8.083193761332672693e+02 6.628062967241597789e+02
-7.910118883952984348e+00 -7.909811543233729481e+00 -7.909517211397331771e+00 -7.909302597144580282e+00 -7.909111071453731157e+00 -7.908923111142035722e+00 -7.908728541190948924e+00 -7.908535484341698840e+00 -7.908345933284545382e+00 -7.908157820939623939e+00 -7.907970885106199610e+00 -7.907793951791540543e+00 -7.907617353285978368e+00 -7.907439957402448982e+00 -7.907264917192598830e+00 -7.907085971251009759e+00 -5.306458063813954240e+00 3.793495973173217628e+00 8.703537877403324785e+01 1.199085144090954458e+02 3.552890625700801479e+02 3.942876101436850718e+02 4.153449887666670293e+02 4.278020375474737307e+02 4.712714919074202840e+02 4.601656431747971965e+02 3.805127318070792057e+02 3.153174180834591311e+02 2.549132854379209618e+02 2.391826152127451905e+02 1.711467825509421345e+02 1.962227617754751634e+02 1.679243887837168074e+02 1.550605309795612641e+02 1.612160367289602902e+02 1.116565216662273343e+02 9.166134356722805876e+01 7.311748451426456086e+01 7.444666238235001288e+01 8.129195911598743862e+01 9.001566398028030846e+01 8.971670284719748167e+01 9.923665142787470472e+01 1.545073209872682014e+02 2.471693950854858031e+02 3.215384372908695241e+02 3.675012491815784870e+02 4.357397876119329680e+02 4.477810817400488190e+02 4.510801192220051803e+02 4.497824450527776889e+02 5.555985509972258569e+02 6.424129200981262784e+02 6.810687134557490481e+02 6.076651234457777946e+02 5.282271623401114766e+02 5.290317058624169704e+02 4.502542127933964480e+02 3.659652412747802259e+02 2.609564370893245382e+02 1.451459817650069510e+02 7.511387240480740957e+01 7.592154120225458769e+01 9.420747378407499184e+01 1.208123510387869857e+02 1.688470198980921282e+02 2.414332797964965494e+02 3.423823622933796287e+02 4.718118791795633911e+02 5.888207500612421654e+02 7.161424718407936325e+02 8.671790947629207267e+02 1.020288988821726321e+03 1.142482686593365315e+03 1.247979393357496974e+03 1.208745457710597748e+03 1.097121953675470877e+03 9.727767202706369289e+02 7.581276419002681450e+02 6.793938345106320185e+02
-7.910176666768172105e+00 -7.909877355228555729e+00 -7.909662284123153420e+00 -7.909470699999173959e+00 -7.909282757334879399e+00 -7.909088266643149900e+00 -7.908895015717349430e+00 -7.908705464403043450e+00 -7.908517067294662084e+00 -7.908330449971301412e+00 -7.908153485038449837e+00 -7.907975620929672544e+00 -7.907799544551766147e+00 -7.907622838957243161e+00 -7.907445280883118599e+00 -7.907267589249752149e+00 -7.907049394892173844e+00 -3.487564089364719955e+00 2.851568616436007630e+01 1.618642583235993584e+02 3.510553569123837292e+02 3.608052421515079686e+02 3.666582851692113536e+02 3.657223183503214727e+02 3.359950617669151711e+02 3.014156346635504065e+02 2.683112202372329307e+02 2.210599982438220081e+02 2.220239638586862725e+02 2.165441444798519797e+02 1.615644703704405174e+02 1.994325429183062397e+02 1.697284982793030110e+02 1.724454139707107174e+02 1.767998420228349516e+02 1.071021242959873092e+02 8.579482803113486966e+01 7.150894951474334960e+01 6.936717707620580597e+01 7.902741050886702112e+01 8.755388423950047638e+01 8.631445960421925179e+01 9.352781905641981552e+01 1.487381397861364576e+02 2.202271893402730427e+02 2.956174790626106414e+02 3.562191690527092760e+02 4.096181161757819496e+02 4.300054679904409340e+02 4.176501705450392024e+02 4.290811040018745643e+02 5.133253695992009398e+02 5.693342231711018258e+02 5.940864632054378944e+02 5.671212748462369291e+02 4.484157638639433117e+02 4.440765385148332030e+02 3.874471449960327050e+02 2.892491180091458318e+02 1.737419362198338035e+02 1.049337391020621908e+02 7.391627746536009624e+01 7.686006712796948648e+01 9.681103095035703632e+01 1.688475611376561005e+02 2.249575896866020059e+02 3.391566721598307481e+02 4.447608864940248168e+02 5.292762493101186010e+02 6.182500250024115758e+02 7.280581039583187248e+02 8.465686208158393811e+02 9.915468078993505969e+02 1.147405199607021814e+03 1.236392034128615251e+03 1.149022794915781560e+03 1.047674775497569271e+03 9.493416313544230434e+02 8.000130839994137659e+02 8.498823991425949771e+02
-7.910239776258022104e+00 -7.910022035150022113e+00 -7.909830409594472478e+00 -7.909642487623841589e+00 -7.909448045012999806e+00 -7.909254669435175522e+00 -7.909065128796377131e+00 -7.908876549189308491e+00 -7.908690162436855076e+00 -7.908513177820926110e+00 -7.908334591453155760e+00 -7.908159206145271902e+00 -7.907981454596878734e+00 -7.907804756088542497e+00 -7.907623336803959901e+00 -7.907409607734281032e+00 -7.907228522442331986e+00 -7.904296765856636320e+00 -7.048395118172987583e-01 1.103718280813857149e+02 2.941799233201621178e+02 2.787814372025003422e+02 2.703558331491768740e+02 2.418519138330468081e+02 1.463983962306066928e+02 1.383532269408811999e+02 1.413979779813972755e+02 1.574749800640907722e+02 1.603664909244685362e+02 1.406785569359458918e+02 1.424114524747696464e+02 1.872069540674036148e+02 1.622002726717886389e+02 1.698970229260034444e+02 2.572007773050447668e+02 9.522885265523855480e+01 8.571097358022765889e+01 7.033502309941469832e+01 6.884031036457662367e+01 7.509769004713488982e+01 8.384455677009529495e+01 8.310003097129197158e+01 8.744316385084806598e+01 1.209707119058234923e+02 1.925416238946677367e+02 2.608455978094362990e+02 3.042940751201876992e+02 3.708118766820486485e+02 3.941524447447864645e+02 3.715693121281793765e+02 3.447085421250834543e+02 4.373613776900905918e+02 4.843443601163862127e+02 4.652550862862941017e+02 4.699055766687053506e+02 3.971393709592571213e+02 4.080983625717991572e+02 3.293244313526706719e+02 2.385988572508307755e+02 1.424449005157994179e+02 8.334387338736608797e+01 7.275754586388951850e+01 7.952726017713096951e+01 1.079810590146975215e+02 1.620702123748022245e+02 2.403496600486291186e+02 3.784942924429177538e+02 5.061858597453842776e+02 6.053242422864327636e+02 6.872996023090069002e+02 7.845141840070685930e+02 8.822671012866358069e+02 1.016953137230025391e+03 1.151381762275511392e+03 1.249475904136873396e+03 1.133503552884749297e+03 9.882146854874425799e+02 8.905594190255036438e+02 8.839333028157551553e+02 9.857419495125127469e+02
-1.100244646801023407e+02 -7.910190176321886035e+00 -7.910002275210648470e+00 -7.909807862345934915e+00 -7.909614403117668502e+00 -7.909424876712296992e+00 -7.909236171125570536e+00 -7.909049958292634130e+00 -7.908872960283637177e+00 -7.908693909226639285e+00 -7.908518923712825277e+00 -7.908340466320875173e+00 -7.908164343680263109e+00 -7.907981632749998546e+00 -7.907769814079058435e+00 -7.907588518985754433e+00 -7.907399109047872798e+00 -7.907198950496599821e+00 -7.794320148559303441e+00 2.015592911172548085e+01 1.223348502923141865e+02 1.493726220340886925e+02 1.388843770854953164e+02 8.622008241714095789e+01 9.809249167184884755e+01 1.382277012797599127e+02 1.382277212797599191e+02 1.885966323411657868e+02 2.181724423947541709e+02 1.857252339698962373e+02 1.296880648318914666e+02 1.683699943111043353e+02 1.445517958568283632e+02 1.618329744956447769e+02 1.994342125034200137e+02 1.303916632674513494e+02 8.333800578498220091e+01 7.802949373786199772e+01 6.875058398344147292e+01 6.873628676099095003e+01 7.794767738563773207e+01 7.871900488513927030e+01 8.027951065952028387e+01 9.779891783708636410e+01 1.558334598203328198e+02 1.977953247025301380e+02 1.989872136134200957e+02 2.925369649559560230e+02 3.227194132252811301e+02 3.215674029804209226e+02 2.631618121141708002e+02 3.153445464254451167e+02 3.427070032891003279e+02 3.517873596747904799e+02 3.579678345544414810e+02 3.324004804000823583e+02 3.314779475494039502e+02 2.731215806133978958e+02 2.086189881178090104e+02 1.090168772159588144e+02 7.094778245106776637e+01 7.270356072806931991e+01 9.836671678282134224e+01 1.203434760094653768e+02 1.572912119171374172e+02 2.305686625961575942e+02 3.608568820749869133e+02 5.068518490336853688e+02 6.139309173431967110e+02 7.262347454833984557e+02 8.243475889385538267e+02 9.302891718519581445e+02 1.034620862827539440e+03 1.146909855782281511e+03 1.226842095378922068e+03 1.110889575627693148e+03 9.510206024341615603e+02 9.541821418585652737e+02 1.056940959813813379e+03 9.770115477248772322e+02
-1.060508158453120728e+02 -1.019666796044078865e+02 -7.910167709197439834e+00 -7.909974191933342169e+00 -7.909784680421806158e+00 -7.909595883084450385e+00 -7.909409805855899478e+00 -7.909232798159989031e+00 -7.909053423910489933e+00 -7.908878684427671502e+00 -7.908699725415978321e+00 -7.908524011048261748e+00 -7.908340714452998021e+00 -7.908130014219545423e+00 -7.907948515666594957e+00 -7.907757977683619544e+00 -7.907558531488383835e+00 -7.907369737122571962e+00 -7.907174697760166460e+00 -2.434575174850770463e+00 1.895382702359090743e+01 6.223512379138192330e+01 4.594451135922446383e+01 6.505079614970945556e+01 1.124757943396331541e+02 1.875246966332296665e+02 1.599410312294562004e+02 2.365781471533667570e+02 3.192664490415338605e+02 2.566208789803389436e+02 1.259252570937444062e+02 1.410986096522117919e+02 1.249608917053045332e+02 1.352118970280984342e+02 1.507407805382742652e+02 1.257748339810545843e+02 8.262597284719984714e+01 8.132263500149774416e+01 7.834405082989842128e+01 6.857036758918756902e+01 7.582121572034722590e+01 7.711873488613620964e+01 7.528222631026169154e+01 8.535029802099015228e+01 1.049085621321057289e+02 1.234671925852121461e+02 1.445456102987736529e+02 1.995305470518379991e+02 2.379797684615714388e+02 2.371292344868373050e+02 2.015034334887953094e+02 1.728173395718537222e+02 2.362648623978819273e+02 2.239157007683957943e+02 2.473001492571054030e+02 2.258795451683430429e+02 2.443692309452667928e+02 1.832318211343290386e+02 1.516635519493205493e+02 7.037109416608538481e+01 7.132954261205019009e+01 8.747183714721073500e+01 9.900591858723247185e+01 1.223460749198036268e+02 1.515782283834648752e+02 2.641963628202011023e+02 3.359237549499895863e+02 4.363185794485805218e+02 5.595968050514593415e+02 7.048769730277683720e+02 7.864915366372246126e+02 9.136885955861324646e+02 1.011887624274699533e+03 1.108279576438080085e+03 1.193683884537265385e+03 1.060918063689850214e+03 1.006252055636873024e+03 1.110605780832762093e+03 1.039805349066398321e+03 9.144536971123401372e+02
-7.910120845679196044e+00 -9.797902886928343946e+01 -9.388033354279353659e+01 -7.910144523247384818e+00 -7.909955656333203855e+00 -7.909769687689555795e+00 -7.909592672668663837e+00 -7.909413061005023060e+00 -7.909238479104030439e+00 -7.909059149335541328e+00 -7.908883737086068066e+00 -7.908700140257812095e+00 -7.908490208431415702e+00 -7.908308512476814656e+00 -7.908117100420155587e+00 -7.907918262510891694e+00 -7.907726981212106487e+00 -7.907530806471727125e+00 -7.907335305326663288e+00 -7.907131573433177962e+00 -3.216339825488704340e-01 1.963511258470274967e+00 8.585405868410131092e+00 7.452191996878765679e+01 1.013725814413740380e+02 1.687760249972343445e+02 1.415040511086014590e+02 1.912278576990341037e+02 2.823567530546589524e+02 2.281783312410921667e+02 1.187249043493881118e+02 1.259664310975508243e+02 1.107191197932831130e+02 1.211241224284421918e+02 1.156467107347220491e+02 9.349310990157624701e+01 8.046175967146585606e+01 8.765784769868879778e+01 7.227781693709179933e+01 6.621039925434864415e+01 6.412584331149275840e+01 7.794744006738662279e+01 7.247575328356168711e+01 7.872787089020798135e+01 8.440920690074942456e+01 1.039830152818997959e+02 1.017409409352530361e+02 1.187804287827170242e+02 1.498399198829460204e+02 1.616792327625554151e+02 1.923805700483776207e+02 1.338817046099119352e+02 1.626211703478709012e+02 1.673028337675856108e+02 1.463954855566732078e+02 1.633475047195506420e+02 1.373539874909284322e+02 1.272173324665974832e+02 9.644247770283314480e+01 6.945784825527529449e+01 7.557092965978121413e+01 9.878678612361645150e+01 1.155462949312259440e+02 1.194618212178152135e+02 1.473362899019072643e+02 1.940604777467101485e+02 2.432347517954439695e+02 4.293492925065901886e+02 5.039645408326713323e+02 5.973103064334753753e+02 7.340694295841202575e+02 8.860268202414879397e+02 1.007734349633334432e+03 1.100463247333458185e+03 1.194981184793174862e+03 1.169963080901415424e+03 1.146294660717138186e+03 1.078937280499726512e+03 9.721137315936540517e+02 8.434620458820522799e+02
-7.909997629736584379e+00 -7.909873621571859026e+00 -8.996127255117009724e+01 -8.582564089775233640e+01 -7.910098586007943133e+00 -7.909933367516607916e+00 -7.909769573791202824e+00 -7.909598681184303537e+00 -7.909418688583870427e+00 -7.909243507529339468e+00 -7.909059604408827937e+00 -7.908860707306003768e+00 -7.908668509408997238e+00 -7.908476400294920161e+00 -7.908278075219555170e+00 -7.908086028754172325e+00 -7.907886497074835042e+00 -7.907676597988627876e+00 -7.907440835059088791e+00 -7.907287809941851542e+00 -1.564078884805514269e+00 2.256003546409135030e+00 1.998917718155365009e+00 2.005146996523765424e+01 7.153931024339463818e+01 1.129528627059647050e+02 1.183071551239440851e+02 1.401514326905942482e+02 2.293483306542352409e+02 1.927790649529659390e+02 1.078513948918136407e+02 1.235529425281830100e+02 9.839218799042332364e+01 1.018505444927595818e+02 9.241814868678535788e+01 8.189997388403708101e+01 7.855881144864366661e+01 8.831074554839570112e+01 7.987791926967931033e+01 7.855201407584243611e+01 6.133543439961727017e+01 6.817900737928613353e+01 7.061414256838074266e+01 7.911536671591639447e+01 8.203865645418537156e+01 8.761605010462550069e+01 8.499867855171693520e+01 9.037092290166540920e+01 9.922178897406178066e+01 1.168083338146698367e+02 1.504111054729782495e+02 9.371373940851410111e+01 1.053770687165626185e+02 1.336846616070969560e+02 1.120534575158605151e+02 1.398691442514382004e+02 1.156343830636059522e+02 1.036613022631556618e+02 7.974060960667220854e+01 6.644445125077926662e+01 7.212689587489332155e+01 9.013445248136510202e+01 1.102275585888751124e+02 1.361295974848745516e+02 1.719818278372287637e+02 2.999701635293313871e+02 2.822111027908166534e+02 3.251139136646922907e+02 4.014643907351493795e+02 5.369647238593162228e+02 6.978094413309016772e+02 8.578845685665215797e+02 9.647706751261074487e+02 1.077976708419311535e+03 1.192924711201414539e+03 1.254025832874962816e+03 1.115375648515451758e+03 1.007651533797629554e+03 8.626866271620179987e+02 7.671187788674235435e+02
-7.909875031372433085e+00 -7.909649481696258810e+00 -7.909753811833573067e+00 -8.162616789182759192e+01 -7.732730900078145453e+01 -7.909972605445024563e+00 -7.909829891559401638e+00 -7.909679155061644096e+00 -7.909558280687281950e+00 -7.909390768214557887e+00 -7.909182670607084908e+00 -7.909004715879103031e+00 -7.908792855827273982e+00 -7.908603864213086254e+00 -7.908422070675467985e+00 -7.908214982599472975e+00 -7.907988547089709108e+00 -7.907748555882235131e+00 -7.907592151784077039e+00 -2.238629888497767784e+00 1.697111538842197787e+00 1.975986573708828020e+00 2.023630181730923461e+00 2.175075341317322497e+00 4.442561434291202005e+01 6.778681485747250690e+01 1.031673259232267696e+02 1.009351484277028561e+02 1.631479500022400089e+02 1.368627234342536951e+02 9.728261599916569935e+01 1.136678922103055243e+02 9.051498560406966476e+01 8.979196883919864547e+01 8.101060786967755689e+01 7.770580211088929445e+01 7.764400018312107932e+01 8.031128837056307646e+01 8.320918821486986872e+01 7.888653228594142774e+01 5.895928267638004883e+01 7.513029799257137142e+01 7.428163764264209590e+01 7.808594161133083844e+01 8.010987464357057775e+01 8.178933654355974170e+01 7.895241471299796387e+01 8.576606103126366065e+01 7.936675360081325437e+01 9.754221067985058369e+01 1.159188788148876625e+02 7.381884748755899750e+01 7.534660611113486084e+01 8.496215181830837082e+01 1.068792432984097758e+02 1.280371878826022964e+02 1.256903275039994554e+02 9.049475082602560860e+01 7.909353082941431978e+01 6.487808917308663581e+01 6.362976612535907606e+01 8.378356474330023218e+01 1.109561605500966124e+02 1.199158925981722916e+02 1.989594664898985457e+02 3.459945355674996108e+02 4.538670773348965213e+02 4.726083120000267286e+02 4.341715809990941466e+02 5.200778220666090874e+02 6.346428736686215188e+02 7.598329753798694810e+02 9.025463769144608932e+02 1.041277087955413208e+03 1.167845343643026808e+03 1.195260245008996890e+03 1.049626561653100680e+03 9.323697236649417164e+02 8.876279616042803582e+02 8.942527903219256586e+02
-7.909762774302714128e+00 -7.909482452177018175e+00 -7.909523103539819466e+00 -7.909642194950228244e+00 -7.359611108719579420e+01 -6.892835702503231232e+01 -7.909830836442027113e+00 -7.909704450760322914e+00 -7.909556528092491767e+00 -7.909398087437857328e+00 -7.909302792233417811e+00 -7.909088379578219197e+00 -7.908848748168736620e+00 -7.908648070805941011e+00 -7.908476831380260030e+00 -7.908289172650839305e+00 -7.908056212541016983e+00 -7.907896640262499055e+00 -7.907617895280898423e+00 -6.119729481204045918e+00 1.732325688665060204e+00 2.158140071313481290e+00 2.572261196612442902e+00 2.563824418581736708e+00 3.485854722972684172e+00 4.122010360122397543e+01 7.998299659691500096e+01 8.696064855869653343e+01 9.763535979595071979e+01 1.003510135809580532e+02 8.343582733782375271e+01 9.852385577932612648e+01 8.524984640477988762e+01 8.043340604573937469e+01 8.117900469970703625e+01 7.764096225085361880e+01 7.762970321969191900e+01 7.785822487223880728e+01 7.835423980065547767e+01 7.530427651841047521e+01 5.694436358533403819e+01 6.955784453548018575e+01 7.295355226050178032e+01 7.962188701105189637e+01 8.782354496800621746e+01 8.379497670970410184e+01 6.820525265001384696e+01 6.241673827184229140e+01 6.745975112653603389e+01 6.506247210851094565e+01 8.452583740429277270e+01 6.588485551040611199e+01 6.246418811743311750e+01 7.774307837267480181e+01 8.887819898277621178e+01 1.104101608563401271e+02 1.111785284388135011e+02 1.002997585902097484e+02 6.777017588020240169e+01 6.255435303671902858e+01 6.347177254562623716e+01 8.625569836384471500e+01 1.035105544548281387e+02 1.169121399427547772e+02 2.114208431114451230e+02 3.602289689818238685e+02 4.888359693192239206e+02 6.007236619334606758e+02 6.034732191342744727e+02 6.003188513497938175e+02 6.320727271577612782e+02 7.597838702321945448e+02 8.867891816990934331e+02 1.028197326722415937e+03 1.145494859095982065e+03 1.183824833915060708e+03 1.079632579161154581e+03 1.067367935959564647e+03 1.068134329776635923e+03 9.051775076672571458e+02
-7.909687478866159971e+00 -7.909356359792497848e+00 -7.909298565848291496e+00 -7.909408384076660248e+00 -7.909530670564696386e+00 -6.557903299742237380e+01 -6.072528545408854939e+01 -7.909708618079879017e+00 -7.909540959955388750e+00 -7.909453218608021530e+00 -7.909301953234470162e+00 -7.909137686254360311e+00 -7.908941741173824980e+00 -7.908717477723476996e+00 -7.908515168714612464e+00 -7.908318865195261615e+00 -7.908203019734592054e+00 -7.907926128467074989e+00 -7.907749397174307582e+00 -8.221609889051584297e-01 1.668955380598468707e+00 2.461967162369569362e+00 2.818290609585631046e+00 2.861736056766554182e+00 2.779717548504029079e+00 8.356585041044549911e+00 5.022833968359407919e+01 6.864302437123690481e+01 8.472448444066655782e+01 8.680195764008378490e+01 6.829028053050771518e+01 8.781831325091262386e+01 7.663109792314320146e+01 7.627636359585368098e+01 7.941845639032948156e+01 7.764149950019805146e+01 7.764281171337890441e+01 7.103617165089539753e+01 6.152586966675115576e+01 5.497030844566443619e+01 5.599800886281035162e+01 6.492160124691986312e+01 8.064134125982590717e+01 8.694965015431198196e+01 9.758190689210567825e+01 8.668379455992553062e+01 9.686049433840980782e+01 5.590929108977231721e+01 5.056669662068696169e+01 5.158876308603852578e+01 4.745718598113640496e+01 5.240152748194269350e+01 5.722770981467441942e+01 5.732848558552921503e+01 6.053233939245330930e+01 8.840352611200279398e+01 1.064557411899531303e+02 1.126129818360239909e+02 6.126543393096753221e+01 6.085883799304814090e+01 6.333622637782364961e+01 8.783491746250159338e+01 1.024969335232716787e+02 1.150625917042576560e+02 2.397609472509675470e+02 3.956637200291324916e+02 5.382080791799602366e+02 6.538730616435468619e+02 7.080500851712486110e+02 7.514722285465823006e+02 8.185646722549782908e+02 8.990623281721506146e+02 9.715007674684140966e+02 1.038694304670212659e+03 1.096729700021686995e+03 1.139432378290654697e+03 1.169572657777868244e+03 1.175114070033805774e+03 1.064322513203311701e+03 9.113756362951334040e+02
-7.909454014947903566e+00 -7.909231531321155195e+00 -7.909074831193663613e+00 -7.909176233349808349e+00 -7.909303885263224920e+00 -7.909428866760276122e+00 -5.758312818375972597e+01 -4.713019121951150225e+01 -7.909599381443501720e+00 -7.909443568464500807e+00 -7.909294878698351461e+00 -7.909155925210005655e+00 -7.909009284071144563e+00 -7.908808108080457089e+00 -7.908559084963358465e+00 -7.908422807663434639e+00 -7.908168433405058373e+00 -7.908082121143131360e+00 -7.358768626115857359e+00 1.509475055613163752e+00 1.806399239451601080e+00 2.095113026324799232e+00 2.756760820167479142e+00 2.931495461801551183e+00 3.019826709560508249e+00 6.750340425704380642e+00 2.719918446117343436e+01 5.421920206431513378e+01 7.763911843398224732e+01 7.458202770698113682e+01 6.063095482266107439e+01 8.081803736567454166e+01 7.077282645214182821e+01 8.001491765396133360e+01 7.963638298488938005e+01 7.765949923819999867e+01 7.964643721620505801e+01 8.482532920807385324e+01 5.141783868741794805e+01 5.402182185902788092e+01 5.941866360574732653e+01 7.630953334492622275e+01 9.192766642730508408e+01 1.013898789965321896e+02 1.032477667283661447e+02 7.978799941003191520e+01 4.173859755734574151e+01 4.329523921849566648e+01 4.660763964377993318e+01 4.130215730316031397e+01 4.300970916341499617e+01 4.375599136900887487e+01 4.394744926778366789e+01 4.866519715328226425e+01 5.023204464653193924e+01 5.951098280407205721e+01 8.033509683419349301e+01 8.102951911598853485e+01 5.920050510845428704e+01 5.961469586817677424e+01 6.959947745953114406e+01 9.122251784482138248e+01 1.021312239200268834e+02 1.343527792650675394e+02 2.173402521198131012e+02 3.459062621270725231e+02 4.924291386526030010e+02 6.204164200269165121e+02 6.972761511488623682e+02 7.533372139578860924e+02 7.980828187054324871e+02 8.649353935443884893e+02 9.505669180276510133e+02 9.934240829062121065e+02 1.052510189365356609e+03 1.096922485589284634e+03 1.171941558506502133e+03 1.097108760150636726e+03 1.000260838354002999e+03 9.578085890197207846e+02
-7.230431489821351754e+00 -7.733088311808917759e+00 -5.330151846608619515e+00 -7.458436915246713816e+00 -7.293792604333668272e+00 -6.535392372685309148e+00 -5.814842692004409841e+00 -4.911790183873070248e+01 -7.909674273423991764e+00 -7.909449066418689611e+00 -7.909298004574812246e+00 -7.909164278559078554e+00 -7.909021967101389272e+00 -7.908854098036488978e+00 -7.908714848444819978e+00 -7.908409484168389625e+00 -7.908272342909373975e+00 -7.907924243704198553e+00 -5.006645164273795245e+00 1.537314742135096335e+00 1.593562312070322395e+00 1.940582195546412425e+00 2.216385795961301586e+00 2.999949429487648533e+00 3.552846454418176148e+00 6.975982070309748373e+00 9.777059544924107115e+00 1.639291851092875518e+01 2.693964731151644543e+01 3.700284349152359908e+01 4.923285509470183285e+01 5.574699103134002343e+01 6.178151253544563559e+01 8.048011609799171140e+01 7.767577921443142941e+01 8.116689913528520606e+01 8.940291242957199813e+01 9.608807642428436679e+01 4.863486233587402552e+01 5.275992922489552228e+01 6.755719948825968402e+01 8.082570287202888437e+01 9.942727492027675851e+01 1.137917118287508771e+02 9.838945602714811400e+01 5.953694236067482848e+01 3.941297875148619312e+01 3.694730279530382688e+01 3.894436284417998451e+01 3.929685966167390632e+01 6.206745543500785089e+01 6.730545492279509290e+01 4.463454632037485226e+01 4.609675941708832170e+01 4.703335719288439520e+01 5.530565520433869864e+01 6.482429890026634212e+01 7.287503544697250391e+01 5.775373602916726412e+01 5.833135323417205598e+01 6.583711066947002166e+01 1.000778312607511396e+02 1.016985795916777420e+02 1.334457908113474502e+02 2.123199883669161068e+02 3.425465060342666561e+02 4.133311747097521334e+02 5.276033275095328463e+02 6.155457625035716092e+02 6.873885259306832722e+02 7.404179392578275838e+02 7.999390628713908882e+02 8.383015679729418252e+02 9.251790253854828734e+02 9.832607924950591496e+02 1.063478414285287272e+03 1.119107392941856006e+03 1.078960590839385986e+03 1.035023524520420779e+03 1.084796070577330511e+03
2.640139170684272507e+00 3.573524327806100853e+00 1.887765833394280612e+00 2.016183209314287073e+00 2.033718009784105885e+00 2.036665312780757020e+00 1.557116050391622597e+00 -7.475811957087618254e+00 -4.153761151629944948e+01 -7.909525471066583435e+00 -7.909316004344178808e+00 -7.909165781111242133e+00 -7.909009265089376406e+00 -7.908931427595259578e+00 -7.908705673788900548e+00 -7.908561953813666889e+00 -7.908243114381754424e+00 -4.218560747087456875e+00 1.326771842256941225e+00 1.411151631075793000e+00 1.438024389491063149e+00 1.628496177927188926e+00 2.166777379762129030e+00 2.727314159742309396e+00 3.573462736795641526e+00 3.664026808795832313e+00 3.630901759998356226e+01 7.869229680329121379e+01 8.024419382519012345e+01 4.118096027799472125e+01 4.612731924511737702e+01 7.870998724875576613e+01 7.940915824332859074e+01 7.930239807703814847e+01 7.808908717405626021e+01 8.336105881803294437e+01 9.431817827376073637e+01 1.055736674757450544e+02 4.700645254920423355e+01 4.688719194308641391e+01 7.238861658414265321e+01 7.760692484138041891e+01 9.434906805215986481e+01 1.088810297538847465e+02 7.677033323527057007e+01 3.549346681778587254e+01 3.433659338243341352e+01 3.431772901603038406e+01 9.085933656213188669e+01 8.293469709431965953e+01 8.476196812193336427e+01 8.761784924620720005e+01 7.634134237466109596e+01 4.607784728034337718e+01 4.728452395823807564e+01 4.961197380948321012e+01 5.887587776264889072e+01 6.920382836290038142e+01 5.487376144104195674e+01 5.689544260275175702e+01 7.160901060638322235e+01 9.571505998870402721e+01 9.998953782157940395e+01 1.164379409136990375e+02 1.706413247762025378e+02 2.532206175642161554e+02 3.566215319941993585e+02 4.325639860078886159e+02 4.575060911219455306e+02 5.745216344092067402e+02 6.584767194679486693e+02 7.079746043597081098e+02 7.198950398282333936e+02 7.756215426806962796e+02 8.962901541583943299e+02 1.023953875066775936e+03 1.093278320418005933e+03 1.057478293946070607e+03 9.990984568718612309e+02 1.091269245627397595e+03
2.260179267870706354e+01 3.067455911484332276e+01 3.480670217954195778e+01 2.406776375081699371e+01 6.146337749021338226e+00 2.190445152127771244e+00 1.910241675446505694e+00 8.877759391070960682e-01 -3.665268692521113536e+01 -3.351871575769914813e+01 -7.909384834198444736e+00 -7.909160721720846610e+00 -7.909071223915145055e+00 -7.908857241545422134e+00 -7.908778871711742653e+00 -7.908477331313525482e+00 -7.891977827646111443e+00 1.289181187126598349e+00 1.487534679992724040e+00 1.404365431405622422e+00 1.464908393059703995e+00 1.580792375257720428e+00 2.067015730437442134e+00 2.493862441795470009e+00 3.621030550446065810e+00 3.581740790664022622e+00 5.310615759865386032e+00 6.604801096947365124e+01 7.856535862376854595e+01 8.234922169032448380e+01 7.641676503861633307e+01 8.164241928019261252e+01 8.052903197413409941e+01 7.992000381753064175e+01 8.340741015675310166e+01 8.920975303201667828e+01 9.976074408912494107e+01 9.236538094642178010e+01 4.424917524785323764e+01 6.753881822235427990e+01 7.908417308948791913e+01 8.092774986438064388e+01 9.255926907208223042e+01 1.051260495149479510e+02 5.466208612202294859e+01 3.346250489905862935e+01 3.233825176677483881e+01 3.324840485754959474e+01 7.823203027688889222e+01 7.747794944235656089e+01 8.998080914704695488e+01 1.042165756029763486e+02 9.951873748353747828e+01 4.728859274232874554e+01 4.757133495547689250e+01 4.821748402691461166e+01 5.125728448690068006e+01 5.198865830931691079e+01 5.328315533488776623e+01 5.853374531930553815e+01 8.403465838907652596e+01 9.284466290957382739e+01 1.050753069583782775e+02 1.248989563154119651e+02 1.418275199099954307e+02 1.954839946689890269e+02 2.829259978008877852e+02 3.613561600026483802e+02 3.622156702943241271e+02 4.408646871195882113e+02 5.191424163283925282e+02 5.854280048469030362e+02 6.330551771463010482e+02 7.441910743184653256e+02 8.795924823425237946e+02 9.896154954720157093e+02 1.033827831252077885e+03 9.647055943515440504e+02 9.172454985544146666e+02 9.849733088566706556e+02
2.140150233504553512e+01 3.508020188210683443e+01 3.924595947168523935e+01 3.323024543550248922e+01 2.642213481118706042e+01 2.125153061703161228e+01 7.794057904186955099e+00 3.477177700456957066e+00 -7.618834951933662225e+00 -2.909815483183410834e+01 -2.494256966180934754e+01 -7.909288259095918150e+00 -7.908908375199113827e+00 -7.907224803643001287e+00 -6.040141525486142804e+00 -6.057591766685890278e+00 -4.934070811019615199e+00 1.586040676515157566e+00 1.592212829225453818e+00 1.625884660289606432e+00 1.547174476599395776e+00 1.544207826885565904e+00 1.573315109151686153e+00 2.344985222803329883e+00 2.851426147555712554e+00 3.597340677704755851e+00 4.919127938140342771e+00 5.014371572095294027e+01 7.061532557875575833e+01 8.282244411285830665e+01 8.395767709881693008e+01 8.443244620799529798e+01 8.611788315304485764e+01 8.150339388873663893e+01 8.974895997975814055e+01 9.367047446527584498e+01 1.020120499046043108e+02 8.773432763477546814e+01 4.157991488292645244e+01 3.922617573732988916e+01 8.323968868730652559e+01 7.456510365746822799e+01 8.314386386653769989e+01 1.029106111245002211e+02 5.994892606648268440e+01 3.252671437778860764e+01 3.215550778026494072e+01 4.832746358058357572e+01 5.267412217472975300e+01 6.121480464363364149e+01 8.260328892709115678e+01 1.068318328485764255e+02 1.089813559807024035e+02 1.091373677862040665e+02 1.104496101043822733e+02 4.878873235821422583e+01 4.990412750421057808e+01 5.172929242506189951e+01 7.420928483683194088e+01 9.581378721481237903e+01 1.012234010925534875e+02 9.289854191362546487e+01 1.107616789814963170e+02 1.142634966059861199e+02 1.222428939169819557e+02 1.598996759788876432e+02 2.401771374084974582e+02 2.838861867296981245e+02 3.115461826261444003e+02 3.405309596109322001e+02 4.261038159650333910e+02 5.224482650383846476e+02 6.484950680748603418e+02 7.675155023309367834e+02 8.815546837357172762e+02 9.159535006612054531e+02 9.081364912213899743e+02 8.479069382359581368e+02 8.414905432040382038e+02 8.858251890538250564e+02
-3.673692190791245427e+00 6.724904118872214731e+00 1.749082030551457478e+01 2.192182443922537161e+01 8.069379661462452447e+00 7.899825275536993985e+00 9.267621996916555194e-01 3.455464714709902130e-01 -9.594781729482819710e-01 -7.876543660968501115e+00 -2.102301356973630320e+01 -1.694087104945779743e+01 -7.898678051671348399e+00 1.411592574373161435e+00 1.116242943896308404e+00 1.303698378429176019e+00 1.803709196259989378e+00 1.991954836546460106e+00 1.793053933074076900e+00 1.892693904949233952e+00 2.220039667650949955e+00 2.322243854140162433e+00 1.725451475981722327e+00 1.732300166643138795e+00 2.282415156354624663e+00 3.575661819801303931e+00 3.667255459423649722e+00 3.218752661814789917e+01 6.356710525862543903e+01 7.835827547122360670e+01 8.206846729502338178e+01 8.606684386898520245e+01 8.490038862697440436e+01 8.591213648796542657e+01 9.853991798476992869e+01 1.040919469393781611e+02 9.884043710484546352e+01 8.373487985477109419e+01 7.735695204432136052e+01 3.442919248771761431e+01 3.021594456747714119e+01 6.488331586423898045e+01 6.537183808876343960e+01 8.795493365107355999e+01 7.873195341092730359e+01 3.142938972775728601e+01 2.882100823672059065e+01 3.362540775499793000e+01 4.032153395773601545e+01 4.951338228785738238e+01 8.809737162728423243e+01 8.832857842137771343e+01 9.822509342468890736e+01 1.001202207231688561e+02 1.003960096276324663e+02 1.048295531347053213e+02 1.018412132400661676e+02 9.683046095127309627e+01 1.000841551625203749e+02 9.867043002082397152e+01 9.989959198360432424e+01 9.404871819297042634e+01 1.085647427926721349e+02 1.109380083845272651e+02 1.161664451739755037e+02 1.372274001940690766e+02 1.816924275650471827e+02 2.185828405905739942e+02 2.693292594000515692e+02 3.094094341793983176e+02 4.767624037763513911e+02 5.872731034144882187e+02 6.658499597378335011e+02 7.542243449560006638e+02 8.463823933246707156e+02 8.435118424385117351e+02 7.890603728232406411e+02 7.262985895380600141e+02 7.316872060212815541e+02 8.184267271530738981e+02
-7.909531229974811062e+00 -7.909177853171687644e+00 -7.794307571833392956e+00 -6.588529782274797242e+00 -1.559532193049975701e+00 1.494462648044191155e+00 1.040525565759590432e+00 1.274122103160736375e+00 7.028479477429901978e-01 -5.379097887269399969e+00 -7.909291128218173483e+00 -1.305486848282581569e+01 -9.383708874455194859e+00 1.683105272694194854e+00 1.639670542377923201e+00 1.444204084594857829e+00 1.739626681105463923e+00 2.043795275261485855e+00 2.188749496950281870e+00 2.217843204419083225e+00 2.422783864724667335e+00 2.574055954926780299e+00 2.803332140043579113e+00 2.831620958660002074e+00 2.953247829460654117e+00 3.977029971028801736e+00 4.071675577630652576e+00 1.181514754283879398e+01 5.700142092314094810e+01 7.018805569189107985e+01 7.803587275863246475e+01 8.267367318554138933e+01 9.110805093965159074e+01 9.147406602806691467e+01 1.056611923544590610e+02 1.082436986302864455e+02 9.713235821950955540e+01 8.144064482765132595e+01 7.522305182966478299e+01 5.919666583770881374e+01 2.780797143057165499e+01 7.275795948353642473e+01 4.540525555960595483e+01 5.982765237312015927e+01 6.778054156789974627e+01 5.753923682962037134e+01 2.671495275859110663e+01 2.970743101163117927e+01 3.180292011938589880e+01 3.468180638330269261e+01 7.404123617375938693e+01 6.392644421677263722e+01 6.730842958181354163e+01 8.054119024237219548e+01 8.298919763567597840e+01 8.379428954137301844e+01 8.894326742645185391e+01 9.685888197636188579e+01 9.945312327407697239e+01 9.910823490649553946e+01 9.869112402675213502e+01 1.042308637860094223e+02 1.022659828884044941e+02 1.068251479529872370e+02 1.102439936861974843e+02 1.229742245814689312e+02 1.450873168915341296e+02 1.908307556686538362e+02 2.415299506093284947e+02 3.237216458051632344e+02 4.354108490420426847e+02 5.565262942311089773e+02 6.343559051461683111e+02 7.139868950871648394e+02 7.570662201529306685e+02 7.284598140185704551e+02 6.740306271210718023e+02 6.350703985450579694e+02 6.537577321992134785e+02 7.226796999638349916e+02
-7.909607012838382190e+00 -7.909273693083552104e+00 -7.909013446824083360e+00 -7.908682613446859300e+00 -7.838398273978219422e+00 1.363321593922719677e+00 1.573284420647023563e+00 1.349553394420031971e+00 8.951711294210451531e-01 5.551971345672725988e-01 -2.981323142490354794e+00 -7.419948210993841720e+00 -7.490994041718153973e+00 -6.332667872753989791e+00 1.652187000855591448e+00 1.602726847509294839e+00 1.585201721359789317e+00 1.757952796407084683e+00 1.651709485148975087e+00 1.878986741299712993e+00 1.686658389341989750e+00 2.064171946003622082e+00 3.229948253508064582e+00 3.240079741287175796e+00 3.875180197763719914e+00 4.423543308889670733e+00 3.921528092368480323e+00 4.450068953251438586e+00 4.731378746628761434e+01 6.288244050137259222e+01 7.134310147302878136e+01 7.754311857287515863e+01 8.680070972377710348e+01 9.401556761144048835e+01 1.039524920873417813e+02 1.017692053579931866e+02 8.634491939853099041e+01 7.769902310116860633e+01 7.956483805945160270e+01 3.283942525749564112e+01 2.413317020915574318e+01 2.475819543798607825e+01 2.707032236944095516e+01 2.987479076554687651e+01 2.809649009056685642e+01 4.404715160085905978e+01 2.626186111641213472e+01 2.594568892046068243e+01 2.714342813699213508e+01 2.936537876980285589e+01 4.298111823642913265e+01 5.359699972881708163e+01 7.069388164692176701e+01 7.675824563317547700e+01 8.359464205642210288e+01 8.373842941812135621e+01 9.014554958791161710e+01 8.994814280483890911e+01 9.495859387927887951e+01 9.563473780696735105e+01 9.844308653782576357e+01 1.007514842841404885e+02 1.015131991007885546e+02 1.055243023560009732e+02 1.039199464389305660e+02 1.110683319668104758e+02 1.085572065053290345e+02 1.340544956388651485e+02 1.951315828488979491e+02 2.542123972848114875e+02 3.584424747097223189e+02 4.603832904824552088e+02 5.502860866373752060e+02 6.150595346843226707e+02 6.584248313248361910e+02 6.453944774340558297e+02 5.941592362596809380e+02 5.657688988779539159e+02 6.207673379201737589e+02 6.352615832180297275e+02
-7.909681706100304410e+00 -7.909371041948826786e+00 -7.909052923656928691e+00 -7.908813667829158511e+00 -7.908461557790398722e+00 -3.054691830810283282e+00 1.633603332105223904e+00 1.640182694803670849e+00 1.449007629181955137e+00 1.459962524830866304e+00 1.263787299976297351e+00 4.905731677257181844e-01 4.638317803234338621e-01 -5.080759397069074090e+00 -3.924819752061750489e+00 1.472875769467574036e+00 1.456302374469976568e+00 1.514371724757099358e+00 1.586254251323921505e+00 1.606339841862379103e+00 1.860320674031666677e+00 2.412195580989158650e+00 2.736193943395706984e+00 3.250641799884807615e+00 3.319876592008639271e+00 3.402151839211077000e+00 3.429155273315100949e+00 4.682044524859963808e+00 8.401140565700588425e+00 5.579899274778065887e+01 6.443155303355783303e+01 7.254317369555583639e+01 7.739186436109923761e+01 8.781778349416413221e+01 1.028034909905327652e+02 9.469461299635338491e+01 7.297296155630097303e+01 7.316662413933950404e+01 2.446881545119140355e+01 2.179199575607847095e+01 2.066912561817582272e+01 2.253032990616048892e+01 2.228082254879769053e+01 2.202504503268064440e+01 2.192260006244579529e+01 2.258694428318962721e+01 2.577661000179455897e+01 2.540302086414975946e+01 2.438201199944344211e+01 2.777120206607618158e+01 3.561783542873753561e+01 7.733419638598039114e+01 9.210227576234606772e+01 9.508773670806884581e+01 9.202016213169640935e+01 9.583724574405157171e+01 9.442962721347019794e+01 9.155648234878219682e+01 9.362828081478772901e+01 1.158585815699112658e+02 1.028010109739973075e+02 1.022700771528521244e+02 1.016639078180419205e+02 1.042081012140283462e+02 9.471493264535845924e+01 9.930089393358552741e+01 9.411320752416750679e+01 9.549028845740633642e+01 1.404363381893711562e+02 1.823526776020623288e+02 2.538141812868169325e+02 3.670231880630719843e+02 4.486110127954266318e+02 5.041403760026825012e+02 5.696921560221793470e+02 5.491760050245986804e+02 4.867812768579211138e+02 4.724357910017097879e+02 5.139175376951975522e+02 5.130057508461028419e+02
-7.909776238685891414e+00 -7.909419682351082059e+00 -7.909168623504548634e+00 -7.908814155458497197e+00 -7.908474611854819258e+00 -5.342542578013551591e+00 1.818400650355133541e+00 1.664618286807662217e+00 1.473351740377639052e+00 1.433897278316885515e+00 1.397398104003358510e+00 1.376468684939334164e+00 1.363698615842956707e+00 1.368532694703220809e+00 -1.639405275918202065e+00 -1.144038660833873511e+00 1.443368860663780673e+00 1.347904446746379437e+00 1.471094413235059184e+00 1.805842611795483332e+00 1.978542312579413265e+00 2.175717786112156382e+00 2.683913929026388256e+00 3.204277784594824485e+00 3.978667368828495920e+00 4.190711248426348234e+00 4.765221568733146285e+00 4.762960824703499796e+00 1.807316515984300054e+01 4.326367132602712928e+01 5.578919174613022136e+01 6.551854250987560135e+01 7.108216274115068245e+01 7.629722214649930834e+01 8.741904714623521500e+01 8.451076226493762533e+01 5.747724126401877953e+01 4.131936809024688273e+01 1.765912117323710007e+01 1.860827034687770976e+01 1.815584726668508964e+01 1.811796201673235274e+01 1.912027860437994420e+01 2.053586724980485556e+01 1.988331536144054468e+01 2.012899649637768817e+01 2.151164374298346615e+01 2.271031684321761901e+01 2.348972699215405768e+01 3.384321350722784416e+01 4.338603646124700930e+01 7.907617298996267152e+01 8.971931826412028954e+01 8.710706892617754704e+01 9.077543699049662962e+01 9.210580002665520283e+01 9.123256709395283792e+01 9.386866441962604313e+01 9.698144217869095485e+01 1.151162089992059663e+02 1.081870910020040242e+02 1.053805510475546185e+02 1.043853366244411234e+02 1.016483752919613579e+02 8.544967803331294931e+01 9.218583307166079521e+01 8.608350280369072038e+01 8.233135036517592198e+01 1.065329704850941113e+02 1.438139235755595564e+02 1.921452997971440766e+02 2.607674404910821409e+02 3.242159132727964561e+02 3.775788243747782076e+02 4.416316502355473403e+02 4.419975736803665427e+02 3.898291802398858295e+02 3.813993710844164866e+02 4.155280716816234303e+02 3.928116306547576642e+02
-7.909812869501663180e+00 -7.909524734788850431e+00 -7.909171489690989709e+00 -7.908817606219119334e+00 -7.908531789427068581e+00 -4.448806848408070280e+00 1.676115702549288544e+00 1.635668855447035552e+00 1.586674119179659170e+00 1.520124254902579741e+00 1.374523803146047829e+00 1.354944012435091993e+00 1.424745855771621939e+00 1.439997022065197863e+00 -4.035102363802660075e-01 -4.075099108257009828e-01 1.158824279929652201e+00 1.333841458767414334e+00 1.338040563531833094e+00 1.346825554406170911e+00 1.555461747831351049e+00 2.089859660702904964e+00 2.144287149698855366e+00 3.078787154332167653e+00 3.535126647067338368e+00 4.078333333344764888e+00 4.776258958531949261e+00 4.790066138163003195e+00 5.884776931802737643e+00 2.907729871354044349e+01 4.546333494540905207e+01 5.675361985228621364e+01 6.495643854508914217e+01 7.292915779537976562e+01 7.820986432128211163e+01 7.361070924862384857e+01 7.171604033333490236e+01 2.628631460810160192e+01 1.599715269901585835e+01 1.479558187100176880e+01 1.549643709241404288e+01 1.641094092370107305e+01 1.730516801866480492e+01 1.776826339839022140e+01 1.926380917994664443e+01 2.039298151987973284e+01 8.086870126288654603e+01 1.138694771722190779e+02 1.472846587498982842e+02 1.332714572208085144e+02 9.623792318994387074e+01 8.256802128377556471e+01 7.351647819457041066e+01 7.820633896728065793e+01 7.878770557238254924e+01 8.533754822158176978e+01 9.228367155726965620e+01 9.302664288613945587e+01 9.479435665644047049e+01 1.023392323267087676e+02 1.067094867165531298e+02 1.021407178500220425e+02 1.024671576330963205e+02 1.010882915000273812e+02 7.804155341190403306e+01 7.414730513511537424e+01 7.769632310060313785e+01 7.507717920008407475e+01 8.866324278041665252e+01 1.098261785322318644e+02 1.427365275921745535e+02 1.960621846965013901e+02 2.324555770657839560e+02 2.696293176778656857e+02 2.976047795093332411e+02 3.108646914952636280e+02 2.742410787494395663e+02 3.027488729823213021e+02 3.203993422844718566e+02 3.032488132178306159e+02
-7.909918981309946417e+00 -7.909530123300572590e+00 -7.909169743747366255e+00 -7.908897191554573602e+00 -7.908520027529255536e+00 -5.479697219232576799e+00 1.689231497718653330e+00 1.532611219626381249e+00 1.519116019251899985e+00 1.523469338287792185e+00 1.411995754020255678e+00 1.355844847961177768e+00 1.274653898783664419e+00 1.249587848210242935e+00 -3.489751175127071559e-01 -3.331243096429976625e-01 1.286278379154941698e+00 1.322263395887001591e+00 1.332274077220351405e+00 1.349774282051680929e+00 1.358765475090369934e+00 1.693140517613867635e+00 1.912236357890983340e+00 2.765266372447504839e+00 2.898029272389798461e+00 3.228414165818274562e+00 4.441204868549162299e+00 4.810104400471204578e+00 4.986859242351314059e+00 6.834564636826401696e+00 3.172625617984021673e+01 4.996399656336691919e+01 5.947097515698075654e+01 6.673771034558824056e+01 7.308480342102050997e+01 7.402284618426472207e+01 6.167771829283448426e+01 1.447253888897239626e+01 1.083023495290424520e+01 1.324555198157056246e+01 6.845083877982241916e+01 7.329274859850568191e+01 7.665884039409871775e+01 6.343963163465077315e+01 4.626479257481879870e+01 9.240529597066179690e+01 1.265151253566908736e+02 1.992594204684233716e+02 2.038887337896335907e+02 1.436136694343186377e+02 1.408705828853627509e+02 9.488605193388114856e+01 7.075065588401729144e+01 6.389785623618794119e+01 7.810876258131773398e+01 8.827942426745900661e+01 8.965638588327131231e+01 9.194203507558187027e+01 9.382479701412631812e+01 1.001128757261548827e+02 1.011905091806831507e+02 9.612109209078401761e+01 9.461180859573612167e+01 8.615766109126528249e+01 7.271845273753159233e+01 6.671174711596633244e+01 6.773477443967645684e+01 6.744360509446786978e+01 7.925745770438328464e+01 9.165724143727531725e+01 1.105308313554447750e+02 1.394698616508697171e+02 1.651383645166155532e+02 2.061159765592850306e+02 2.246954141523480928e+02 1.970147016911336948e+02 2.261346287740075525e+02 2.669244583762073830e+02 2.691988004622920698e+02 2.465349816078675076e+02
-7.909919974159430822e+00 -7.909524605851147250e+00 -7.909259778990601397e+00 -7.908876960113525811e+00 -7.908527024629655067e+00 -5.898139802028824263e+00 1.670620771170236996e+00 1.513305279697654049e+00 1.500152604491390207e+00 1.511392335820056942e+00 1.487519244745876046e+00 1.492027906616992583e+00 1.777879369722093594e+00 1.243842643400311143e+00 1.233690943850520583e+00 -3.004137970206817720e-01 8.712638640737309370e-02 1.310075129525767546e+00 1.323799908085710797e+00 1.341855899457924384e+00 1.370144216412137572e+00 1.650857521279630147e+00 2.340963233339389049e+00 2.761962202493885243e+00 3.100035179887725256e+00 3.106137109186314582e+00 3.577281895663814826e+00 5.260241750418916062e+00 5.384748940801501682e+00 5.126463220414973598e+00 1.614810696064248319e+01 3.645150024294707691e+01 4.841342869511357350e+01 5.644536599064954885e+01 6.365448400467668932e+01 6.956747442217159971e+01 3.811154341760578745e+01 1.088964666300608997e+01 1.083021495290424419e+01 3.026501870372792524e+01 7.041547804559931478e+01 7.147145696676292914e+01 7.447348118102058834e+01 3.518628359151365004e+01 4.611897045735558720e+01 1.156734756557445536e+02 1.494700090712705389e+02 1.310560615343261759e+02 1.349151052670118816e+02 1.650908130257188020e+02 2.009657274295072966e+02 1.296794286776885201e+02 7.889588834251647143e+01 6.012806270403083175e+01 6.724012877340176431e+01 7.114986211089666313e+01 8.292003723346482502e+01 8.744856878678766066e+01 9.115270528376569814e+01 9.369826924739541596e+01 9.183903436729772807e+01 8.820685099855350586e+01 8.106090770830631698e+01 6.975739904625496024e+01 5.666556484688084083e+01 5.774688014781465029e+01 5.660124550586390058e+01 6.266448273742872033e+01 7.414475686202685267e+01 8.488287641811356821e+01 9.671844198830785899e+01 1.201096211453125733e+02 1.352090541087370354e+02 1.440948803845573991e+02 1.541275124731035930e+02 1.566230691729266766e+02 1.863985609973935027e+02 1.978670480944773544e+02 1.991643159204293738e+02 1.703438166977934145e+02
-7.909897921064747983e+00 -7.909623075381473356e+00 -7.909237710113525388e+00 -7.908889495827811089e+00 -7.908497780536060340e+00 -7.811083082713454750e+00 5.291619051778501115e-02 1.465528638418159613e+00 1.358784561575862249e+00 1.280729852359486998e+00 1.392316274968740997e+00 1.404929541271630500e+00 1.547118286437254575e+00 1.735638122174128162e+00 1.520586615930836549e+00 1.328648482618112192e+00 -2.662142289590864741e-01 1.373992570317162931e+00 1.411663960279795571e+00 1.421711561400366586e+00 1.592303629465775749e+00 1.940365438136044007e+00 2.155964029993960640e+00 3.734295324235043623e+00 3.957262064344718056e+00 3.186353183585023618e+00 3.959804298632814579e+00 5.108936003957796679e+00 5.378692024643470404e+00 5.271300854263384572e+00 5.862777758753451529e+00 1.656631279045577188e+01 4.201249708249278569e+01 5.280598224704945665e+01 5.744199892834027565e+01 5.853847265887401363e+01 3.062586879487999525e+01 1.076087091356312797e+01 1.385817053071211902e+01 2.545606920481397495e+01 7.251666878294393825e+01 6.618224416423846890e+01 6.950512714758713173e+01 3.198674781464252348e+01 4.630930020156100824e+01 1.009544773564505817e+02 1.195187421308788629e+02 1.095752674857994862e+02 9.623308281335107495e+01 1.313974876358123538e+02 1.880720415547688731e+02 1.275969037463879800e+02 5.200590805662348970e+01 5.329320799496472461e+01 7.564922096744518853e+01 7.738478609248410578e+01 7.909032157675251540e+01 8.852741072190949012e+01 8.958387367384598576e+01 9.151378608459073405e+01 8.693437301701759168e+01 8.039155600509766941e+01 6.633856302701387619e+01 6.129368412542231681e+01 5.001700047937777782e+01 4.632823800951151583e+01 5.286648362231526477e+01 5.279242160575563503e+01 6.798303124808099085e+01 7.464623996128574390e+01 8.368979969264584895e+01 1.081783131878967055e+02 1.168635028282441652e+02 1.200241971175252189e+02 1.222321902849512156e+02 1.289361522174940262e+02 1.147432545181648464e+02 1.407396961353443317e+02 1.353715699868628803e+02 1.275410118245125801e+02
-7.910017114490412560e+00 -7.909597710113525970e+00 -7.909249495827810783e+00 -7.908844160585222660e+00 -7.908545772019018649e+00 -7.908223346355241823e+00 -3.315204077030905250e+00 3.845850368118791662e-01 1.268884848599481918e+00 1.273828443267660759e+00 1.363421201690181439e+00 1.406916767882624431e+00 1.418754231490025886e+00 1.433152062241260349e+00 1.514731186748878855e+00 2.176857418197595262e+00 -1.688794773077198497e-01 1.431558932769077419e+00 2.320743262026890186e+00 2.339597743767580784e+00 2.907076863371940156e+00 3.010309930054843708e+00 2.658891281700160647e+00 3.537260429034889242e+00 4.703280570617770273e+00 3.820062148403213342e+00 3.602002629139610779e+00 5.145551119488758651e+00 5.424131878557424180e+00 5.762007705350086439e+00 6.414376281115441003e+00 9.449560200056351889e+00 3.497188844167501287e+01 5.343533621458900029e+01 5.530639108244293567e+01 4.124881281067261085e+01 1.888420123228411640e+01 8.869223339697230202e+00 1.207384268895379442e+01 5.484551320738408720e+01 7.057904538665295036e+01 5.993953988224065910e+01 5.324146050854025702e+01 3.864289917344838443e+01 3.143785551555830793e+01 6.516548095005407504e+01 6.493184498805625537e+01 6.110198257193111715e+01 5.085231438532408532e+01 5.300534871695293049e+01 1.108785683747871502e+02 7.053237631014489750e+01 4.629864507961053022e+01 7.401333498792844523e+01 8.939165790743135176e+01 9.682977495973881332e+01 8.614504393554989292e+01 9.242650498081439991e+01 9.510305104754777972e+01 8.738913835888483561e+01 8.245354361150889133e+01 7.294418008448062096e+01 6.297232446668851225e+01 5.388572513355535420e+01 4.307837489668420972e+01 3.780678221511664105e+01 3.837078650155006443e+01 4.409226484116354783e+01 5.367800151373469220e+01 6.066364141120892128e+01 6.625519572229586629e+01 8.432371900172449841e+01 9.902453964658654684e+01 8.967336933982431901e+01 1.051498441179611518e+02 1.037982097341869121e+02 8.225089452396997558e+01 1.117380000864844334e+02 1.030839614414753385e+02 1.009864626270935730e+02
-7.909984969728910187e+00 -7.909609495827811365e+00 -7.909197302312106714e+00 -7.908904290766789913e+00 -7.908580906872313854e+00 -7.908282421308887145e+00 -7.907953894774382597e+00 -7.789481721968837036e+00 8.631504143565048581e-01 1.255275742816696294e+00 1.262572774902336770e+00 1.367209729410271191e+00 1.421372572087338693e+00 1.428917969337661020e+00 1.456098504913936553e+00 1.925898223860441627e+00 -3.770828979524892821e-02 2.784532283085634496e+00 3.098060099252233801e+00 3.236856687727368342e+00 3.564720376942909219e+00 3.038619332298777120e+00 3.078395133619201918e+00 3.854866582030955779e+00 4.634714549603575762e+00 3.870286809155152774e+00 4.215374615039289452e+00 5.431878435090176538e+00 5.597097050862459788e+00 6.260456976486378444e+00 6.435305997609617634e+00 7.134225243254133986e+00 3.826002266142855746e+01 5.187269076023128633e+01 5.422953502466081233e+01 4.784746183702457500e+01 1.878007366777200460e+01 8.538983014547254058e+00 1.142959240737009452e+01 5.495696344850215809e+01 6.660245512183358585e+01 5.634294229366457785e+01 4.146513666025578004e+01 4.143057782436582670e+01 2.958885926515445774e+01 3.217188567664659615e+01 1.685015616848041375e+01 1.470455170167894821e+01 1.406627968737142709e+01 2.442407693832338111e+01 6.684188755394900738e+01 5.418009228765228613e+01 3.223059420961617860e+01 7.599213398586620372e+01 9.326369793058020718e+01 9.412975898693454724e+01 9.270977735168456491e+01 9.244763011152970478e+01 9.288118114639217993e+01 8.303409339575021875e+01 7.596672133804635507e+01 6.768410437886024056e+01 5.381234213337279471e+01 5.135688723888242180e+01 4.005674053611253527e+01 3.790153941415795913e+01 3.098541932468079452e+01 2.988293570775153185e+01 3.675330755772168345e+01 4.318195444450633147e+01 5.708112487490081577e+01 6.940569773478098625e+01 7.756488477213646604e+01 5.978713798764899678e+01 5.288113317010759573e+01 6.239997434273040255e+01 5.698152945791692758e+01 4.760638124909203128e+01 5.583341760784887953e+01 6.133900886086535564e+01
-7.910000835113525142e+00 -7.909553171761252166e+00 -7.909263569290031270e+00 -7.908939748364686828e+00 -7.908630512648810118e+00 -7.908314235467121200e+00 -7.907974204397897111e+00 -7.907781087391249741e+00 -1.417539090005387914e+00 1.205084258120048268e+00 1.220425680384601641e+00 1.359410938617375830e+00 1.434231058904737122e+00 1.434250575978979869e+00 1.524203982822711412e+00 1.857319608806203837e+00 5.673393927570229839e-02 1.552060931113006248e-01 2.726547211274521487e-01 2.758922922344121620e+00 3.182676209834233827e+00 3.862149339131850656e+00 3.826564773234481187e+00 4.300510642061573741e+00 4.556884389580348582e+00 4.495544863318834850e+00 5.345016623816770895e+00 6.112199040577735332e+00 6.400255765352447668e+00 6.463228542819984490e+00 6.662165213847020873e+00 6.592736043176735450e+00 3.554504266896256581e+01 4.502407232600758391e+01 4.843384333263842478e+01 4.314633428890931555e+01 1.232702693353507506e+01 8.299468808109303097e+00 1.101985718266478109e+01 4.510941097691121371e+01 5.745613011757345134e+01 4.744034465795038358e+01 2.542463991192395056e+01 2.688940976676441608e+01 2.083457232340042253e+01 1.208755175652732916e+01 1.077540124508999320e+01 1.148208335482391895e+01 1.157868952321406120e+01 1.176224395684936752e+01 1.244616785446700646e+01 1.777629366881084394e+01 1.923579536052691097e+01 6.510583172774896354e+01 8.672412795022565035e+01 8.327301205766795533e+01 8.693914173940282808e+01 8.776326773099809486e+01 9.905343314722964010e+01 7.692093136561055644e+01 6.581293840151280961e+01 6.049487108543795699e+01 5.448636807029811280e+01 4.581675012458156715e+01 3.645614474763392110e+01 3.351869306294032214e+01 2.720453608354618780e+01 2.801225736993792736e+01 2.485753095960090775e+01 2.485348499692923596e+01 2.797002598225209269e+01 3.851521939118487126e+01 4.990142847009456517e+01 3.064387578051825045e+01 2.637540812682625102e+01 2.514337540446049246e+01 2.776564890870105629e+01 3.625794835517639569e+01 3.203578082941689331e+01 3.670590198910345237e+01
-7.909915210113525497e+00 -7.909623142342620206e+00 -7.909299071686226590e+00 -7.908985577488756746e+00 -7.908674344118288069e+00 -7.908336308556060068e+00 -7.908139581632095627e+00 -7.907770905191877198e+00 -4.974990635346263623e+00 1.583886727862176880e+00 1.332022497260052285e+00 1.466759242982541123e+00 1.453336533104538475e+00 1.475651634054905292e+00 1.602010764341366800e+00 1.746205820266770736e+00 1.996128109789260918e+00 2.406752951140594288e+00 3.725714381553964505e-01 6.942069977421259086e-01 1.700100430334470003e+00 3.854346240927359002e+00 3.273085365785033840e+00 3.741223591525497660e+00 4.438020635805436598e+00 5.090569905105298609e+00 5.574474763230529817e+00 6.125646771164365845e+00 6.343221401096161394e+00 6.641620002295187675e+00 6.717739204945276654e+00 7.232430414663747698e+00 1.458974145707786185e+01 1.597447859487691524e+01 2.890443616018421480e+01 2.851282538895209129e+01 6.015235985336438773e+00 5.726958526554335016e+00 9.756304265297691458e+00 1.220917953070630446e+01 2.058488715640677214e+01 1.019268080455185910e+01 9.968113980795969553e+00 1.458899205540003585e+01 1.215576675619714031e+01 1.071574739750663419e+01 1.066573439695288350e+01 1.163453823355153283e+01 1.189526921830741735e+01 1.262565898433966716e+01 1.264083688058981103e+01 1.431628823394334482e+01 1.456517867537877997e+01 5.043639076183207237e+01 7.496383868601526501e+01 6.220153768771245240e+01 7.692149256423381587e+01 6.881132027284098740e+01 7.614853912012537762e+01 6.971267754093071289e+01 5.621012003578247374e+01 5.224718589386105805e+01 6.175117040629688603e+01 5.808920891663864694e+01 2.576592293874699280e+01 2.650542815496249105e+01 2.596255915095670019e+01 2.417954928826128125e+01 2.252200959467704422e+01 2.233944105126651181e+01 2.240616796818367717e+01 2.275811090467489350e+01 2.276481553856634577e+01 2.318357268359644507e+01 2.370167540249274296e+01 2.385062607461838979e+01 2.518023725389435086e+01 2.879883080493888770e+01 2.796567383146095054e+01 2.932410889198679627e+01
-7.910010625651122673e+00 -7.909658627992076418e+00 -7.909342877757220336e+00 -7.909034397567262786e+00 -7.908713721240883565e+00 -7.908508042549953210e+00 -7.908127694146065423e+00 -7.907795759781022227e+00 -5.287180621604640862e+00 1.620683397615968468e+00 1.849133445174185431e+00 1.748545166570283582e+00 2.091663654688192597e+00 2.278173992588262031e+00 1.760446919410527000e+00 1.901219755506917020e+00 3.227153322146414816e+00 2.998029203423999700e+00 3.425199464704739238e+00 2.920156695336562080e+00 1.703734976678341173e+00 1.706922674688780228e+00 1.720589310991985199e+00 3.721674721216456483e+00 4.010976953906339126e+00 4.728188546030763106e+00 2.026927099589820092e+00 2.048943146437004259e+00 5.750492505639000385e+00 6.983022166878350312e+00 7.301178511461445808e+00 7.897212111392065914e+00 8.039944089989038645e+00 8.433620641206438506e+00 9.248755152433776772e+00 1.769132893850783717e+01 5.260044955124684840e+00 6.399888553565245886e+00 9.061818290436532308e+00 9.074892165249435649e+00 9.085621464447140028e+00 9.095169148897207734e+00 1.044889639566079609e+01 1.014575539055680409e+01 1.058246361343167408e+01 1.064789727499616667e+01 1.072694049092214819e+01 1.225277522141853481e+01 1.307690280344779055e+01 1.275482861166588933e+01 1.281013501837892399e+01 1.329671759465690073e+01 1.518088063735762816e+01 3.097323005741770174e+01 4.976066231797597084e+01 3.514118647031369846e+01 4.395854885823781188e+01 4.233408986966132659e+01 5.495828152741463413e+01 5.595041938267214476e+01 3.823546889126495785e+01 3.866483276339830866e+01 5.645381868263715575e+01 2.733424535831690605e+01 2.109482194088020890e+01 2.153820540354294266e+01 2.164685606923971761e+01 2.151505795155767586e+01 2.114720970573553771e+01 2.111835723972749435e+01 2.118088802315708818e+01 2.168888704822806801e+01 2.286378099377949979e+01 2.228181903136234610e+01 2.237732877021264954e+01 2.322032295718954487e+01 2.342407085661410449e+01 2.346709660395562480e+01 2.426691461433575725e+01 2.477383489733339061e+01
